 0.0651121686689478 -0.0570594887533615   0.472968226918468 0.480826708326365 1589936328.37336
 0.101711119389562 -0.230699802699512   0.67673796468341 0.722178526139428 1589936328.39892
  0.15482894366049 0.0685995236935304  0.857188917059526 0.873756680075 1589936328.426
0.121234767767565 0.171005877464225 0.474731576079798 0.518951778463254 1589936328.44943
  0.105132310995641 0.00693023903875942   0.429138960212399 0.441883557286982 1589936328.47397
-0.0375163789648592  -0.177189760336399   0.634682693181734 0.660019553409688 1589936328.49934
-0.0013500257632332  0.0338145557088083    0.80755684324238 0.808265613406227 1589936328.52683
-0.0169324312285546   0.129755017335281    0.44694263050902 0.465704613158719 1589936328.55022
-0.0560638577790692  0.0393923991627878   0.431211064556157 0.436621002079064 1589936328.5747
-0.127514942299232 -0.111198261811027  0.656616428857406 0.678063602167838 1589936328.59975
-0.0447277491407915    0.10311254763851    0.85334298934646 0.860713091854922 1589936328.62729
0.0961727835391632  0.133107117317115  0.472055178935715 0.499802762031357 1589936328.65074
0.0778440245179119 0.0239561978621412  0.468274043232401 0.475304293200026 1589936328.67522
-0.0770757163166584   -0.09337682391129   0.688462524302362 0.699028286021579 1589936328.69999
0.00470601798464165   0.102893278334607    0.88900971026655 0.894956668381174 1589936328.72775
0.114609309983859 0.127567404615688 0.525205806027238 0.552494231046877 1589936328.75113
 0.0676310859500503 0.00560386843018913    0.55272718512902 0.556877642134083 1589936328.7756
-0.139213029743311  -0.12433088989034  0.784402691089829 0.806303925092891 1589936328.79999
-0.072013176451656 0.0583400150003415   1.02439416626737 1.02857807813287 1589936328.82793
-0.0144883889814491  0.0888534250034256   0.589807760409935 0.596638951787344 1589936328.85128
-0.0508215702446709 -0.0537039933774862   0.610203757473683 0.614667045270709 1589936328.87582
-0.335571864634783 -0.180351634253143  0.785288357167255 0.872818991667053 1589936328.89988
 -0.253181531578382 -0.0752884459273326    1.02069831412764 1.05432171868246 1589936328.92798
 0.0998323220299958 -0.0896137099671536   0.591906295602506 0.60691858787638 1589936328.9518
 0.0974425738412082 0.00479660800675387   0.572221382615144 0.580478572702867 1589936328.97624
 -0.260564375716155 -0.0852572931182482   0.707964202886602 0.759194252145696 1589936328.99983
-0.170272827465006 -0.104189427784642  0.927389362140419 0.948630223873471 1589936329.02818
 0.216521241476028 -0.133751021863184  0.535067456816091 0.592509887852857 1589936329.05237
 0.240105540701602 0.0524733907699609  0.528724450778309 0.583055462426457 1589936329.07663
-0.284788749147689 0.0385531880259682  0.684370116585131 0.742262377076204 1589936329.09982
 -0.208348627165313 -0.0315605348188232   0.927573439950788 0.951208549321261 1589936329.12822
  0.280323926888592 -0.0973368401453386   0.573134933279945 0.645398803982102 1589936329.1527
0.319823899188423  0.13473028004836 0.559292701664036 0.658215694881741 1589936329.17697
-0.272744432246111  0.119490325489384  0.684090125325323 0.746087637462536 1589936329.19971
-0.199557657933379 -0.048748653002887  0.935755856509165 0.958038993465638 1589936329.22847
  0.267220358991632 -0.0928911751364733   0.575694194488462 0.641450930504875 1589936329.25295
 0.330263148700021 0.0869987233120565  0.567964374886588 0.662741319360346 1589936329.27717
-0.341911773905869  0.136092438028268  0.661034989400964 0.756565972031698 1589936329.29959
 -0.316751065020399 -0.0951843997193105   0.905634977818911 0.964140041794003 1589936329.32835
 0.240560363824176 -0.217924033269288  0.575988621283465 0.661152830113886 1589936329.35288
  0.284233623570826 0.00801984471968807   0.567063175954447 0.634360872217915 1589936329.37725
-0.334518774331319 0.0688157748568429   0.62683508135012 0.713835163367908 1589936329.39952
-0.318536889740894 -0.160439944400485  0.860166058224734 0.931177949484903 1589936329.42845
 0.241900213290023 -0.248152986092302  0.470203241216152 0.584111894885269 1589936329.45301
  0.307273163066013 -0.0388279937362215   0.480288473186495 0.571490531254882 1589936329.47726
-0.303825715733056  0.034429400588652  0.585083032407921 0.660164830915164 1589936329.49958
-0.227512354796525 -0.217180836560925  0.754494328667526 0.817429556197856 1589936329.5285
  0.32588049077656 -0.226783627437564   0.38652200723246 0.554101227229755 1589936329.55303
 0.421188000148927 0.0524089432558076  0.400113738918775 0.583298408084751 1589936329.57741
-0.298675709032387  0.162821350417823  0.475628635913068 0.584756847431826 1589936329.59971
-0.256762785561536 -0.138297237652844  0.567405187494264 0.637967006033327 1589936329.62867
 0.286824677400786 -0.131198890201795   0.23995718993402 0.396309219369521 1589936329.65344
 0.381611125278268 0.0977859097354442  0.251874578038775 0.467578804204323 1589936329.67769
-0.294138564718907  0.211661938829904  0.322461745267733 0.485077157538102 1589936329.69993
-0.282382143280001 -0.052868680002356  0.350896958425197 0.45350132039571 1589936329.72896
   0.30622785913855 -0.0581728650059084  0.0791035479783208 0.321585066877076 1589936329.75391
 0.433029654521625 0.0789373327278602 0.0916373425842947 0.449603366034128 1589936329.77806
-0.196051653403045  0.176554220002371  0.148022665510784 0.30252000414457 1589936329.80015
-0.203059504889177 -0.111280415993348 0.0836163870352121 0.246187314235142 1589936329.82918
  0.124384574380246 -0.0287038147997257  -0.127295959528331 0.180276711308062 1589936329.85419
  0.199485051652482  0.0403414495752459 -0.0745390064624572 0.216743585536079 1589936329.87825
 -0.217528801272262  0.0891363753041447 -0.0173561793741402 0.235722951253746 1589936329.90026
-0.184902092275104 -0.173042178629586 -0.160460642171942 0.299799928283541 1589936329.92917
 0.152052859885561  -0.14666230419097 -0.354946171573523 0.413057730087071 1589936329.95414
  0.228242108630175 0.00194605845863439  -0.294531713195368 0.372622030177057 1589936329.97821
-0.246580145496023 0.0689779446019652 -0.239637917640323 0.350693679106627 1589936330.00025
-0.199071185369019  -0.15342626373961 -0.447183399240702 0.51297363266136 1589936330.02913
  0.147044508433757 -0.0847988249801646  -0.555522179316361 0.580876768248603 1589936330.05388
0.202991730440845 0.118857974386523 -0.46964279227229 0.525259186531706 1589936330.07799
-0.354298985837887  0.158248600042553 -0.370237135313889 0.536326325241096 1589936330.10002
-0.293999094377913 -0.100493545445832 -0.566961486636443 0.646513532341212 1589936330.12878
  0.26043600747451 -0.139427945804437 -0.612217238613591 0.679762468305039 1589936330.15331
 0.327528592525034  0.109746782287338 -0.554039661987437 0.652900667941922 1589936330.17746
-0.248176210098538  0.187824164874665 -0.487558924202462 0.578431545421929 1589936330.19955
-0.165231547371247 -0.100254654929181 -0.695307926402593 0.721668603030462 1589936330.22822
 0.296126526451219  -0.14129761467158 -0.670629618934758 0.746592272510586 1589936330.25267
 0.345321145755936 0.0645526958429163   -0.6214974957589 0.71391377734385 1589936330.27691
-0.283576328037874 0.0887670473504414 -0.599512186420666 0.669111339154887 1589936330.29903
-0.204608041171369 -0.107944735166057 -0.783363197189305 0.816807452875343 1589936330.32764
 0.259961513238911 -0.152023554542062 -0.765566100729609 0.822667979252509 1589936330.35202
 0.260396004943914 0.0300367787824543 -0.732054305302681 0.777567870595595 1589936330.37618
-0.481069390496112 0.0699149704440475 -0.683051349980953 0.838376412046102 1589936330.39866
 -0.426482841535778 -0.0692582830788528  -0.844496979197417 0.948609230280322 1589936330.42711
 0.242559003992597 -0.191291095559299 -0.712734107158766 0.7767992412236 1589936330.45141
 0.303016960353844 0.0565148451336582 -0.657648778895101 0.726302362907337 1589936330.47546
-0.387760884571875 0.0189137679334875 -0.696950310181437 0.797781905713213 1589936330.49821
-0.323880906807972 -0.190287621555662 -0.819333356075821 0.90134087286139 1589936330.52649
 0.286600261418169 -0.290963490962136 -0.711322715251504 0.820231350382688 1589936330.55069
  0.354923534277569 0.00741462665901152  -0.690317182900209 0.776249640824299 1589936330.5747
 -0.250248664995861 -0.0229750983431825  -0.745015316474197 0.786257000768347 1589936330.59797
-0.150439093208758 -0.196578891234566 -0.842348095399909 0.877966682208578 1589936330.62613
 0.218641505090901 -0.211057683863442 -0.709208388621976 0.771573711422308 1589936330.64985
  0.267409439422202 -0.0135658602758395  -0.691733418830815 0.741745888822101 1589936330.67415
-0.230610735716754 -0.052448026018354   -0.7908033047077 0.825410185058111 1589936330.69792
-0.148119999119891 -0.134276828758508 -0.861175155335126 0.884077173694241 1589936330.72597
 0.247486879961855 -0.180203440337098 -0.707157773202545 0.770581048211907 1589936330.74906
  0.268210003618652 -0.0327741205089317  -0.737913209533899 0.785828641512176 1589936330.77365
 -0.323326406081137 -0.0770658434274666   -0.85868379244999 0.92076976737338 1589936330.798
 -0.266617347718445 -0.0527186398638107   -0.88443501803418 0.925250974719091 1589936330.82572
 0.0816874262232328 -0.0670768348987832  -0.736902506025643 0.744444383933338 1589936330.84891
 0.071413131561463 0.0308445648660699 -0.754816286214896 0.758814106666738 1589936330.87335
 -0.418958736759516 -0.0404701071889764   -0.92830533081103 1.01927181845433 1589936330.89816
 -0.36577623505817  0.037722560759148 -0.940375111198238 1.00971312534039 1589936330.92573
  0.126709871867732 -0.0587503428495261   -0.73173655069555 0.744946557839886 1589936330.94883
 0.148065287087765 0.0576938482102025 -0.720448119576654 0.737765140382236 1589936330.9734
 -0.276302594740374 -0.0689695214851817  -0.833396072427177 0.880709334736042 1589936330.99829
 -0.226498619000748 -0.0227019601966904  -0.813289920532863 0.844545734845881 1589936331.02548
0.0703659247722812 -0.064780527472093 -0.660595390624911 0.667483445655022 1589936331.04851
0.0849081688385571 0.0636017132856314 -0.651911594563054 0.660487170347864 1589936331.07301
 -0.211293789813542 -0.0257651931701483  -0.778514893829034 0.807090051175516 1589936331.09823
-0.186183703227453 0.0483260472972827 -0.736273684786729 0.760985359323224 1589936331.12538
 -0.0122287388527037 -0.00495997164749241   -0.600394996573828 0.600540003066872 1589936331.14846
0.00233836503175686  0.0604801698719116  -0.581147299318535 0.584290597565958 1589936331.17277
 -0.110860231428606 -0.0271182453903672  -0.722456504996311 0.731415608089506 1589936331.19821
-0.0611048488110254   0.146826903763519  -0.632136020442569 0.651834250832195 1589936331.22513
-0.061991617364763 0.0984001840116818 -0.528999750509054 0.541632987248445 1589936331.24828
-0.0418283045376159  -0.050575604022952  -0.512749390874018 0.516932719630374 1589936331.27251
-0.0189032690001613  -0.140180019688561  -0.645335870786269 0.660655854149685 1589936331.29808
0.00859056212023939   0.190033936154881  -0.553422282917734 0.585203313283456 1589936331.32489
-0.022528365239091  0.237221637822241 -0.442438003812159 0.502526636019128 1589936331.34813
-0.0168395773382419  0.0513460155029206  -0.415315504462191 0.418816132592383 1589936331.37231
-0.0859287699132853 -0.0898617777350851  -0.456824882174887 0.473442568397287 1589936331.39716
-0.126643668949198  0.127373827449953 -0.318493896407476 0.36565157302134 1589936331.42478
-0.0517821215902882   0.183750425854292  -0.257609830826898 0.320637539999121 1589936331.44807
-0.0582693687268305   0.110342993983844  -0.241134399249477 0.271508184323324 1589936331.47209
0.00989241343335828 -0.0570080496668806  -0.225999114953127 0.233288185577313 1589936331.4968
 0.0632545942267699  0.0811176118803863 -0.0827994446823015 0.132049076814902 1589936331.5248
  0.131810589707312  0.0563720464612935 -0.0518376318877668 0.152443364109282 1589936331.54806
   0.155440361989355  -0.0935799077524248 -0.00458464460204261 0.181493592824819 1589936331.57216
0.0854702890675724 -0.239234014416433 0.0590415074770103 0.260814078554541 1589936331.59694
 0.072934483780014 -0.030520022814852  0.234029363694234 0.247023589537526 1589936331.62485
 0.164153230081056 0.0506417674712127   0.17427132070026 0.244706691320988 1589936331.64822
 0.171732068058323 0.0193015439891029  0.200937488905573 0.265028917757344 1589936331.67234
  0.118566736052805 -0.0671864787899446   0.275634846188277 0.307484409789574 1589936331.69752
0.112257276888071 0.203637193141505 0.397311125052259 0.460354138392573 1589936331.725
0.0175569299296049  0.316375367991187  0.149063769940104 0.350173709419866 1589936331.74844
0.0180510371791044  0.298437305834836  0.102666785775911 0.316118861124663 1589936331.7726
-0.160696818199193  0.235515593838816 0.0983640969776054 0.301606627736882 1589936331.79816
-0.193706424201587  0.466209949616286  0.219070815167024 0.550332552150179 1589936331.82557
-0.0829341799014248    0.43335620083718   0.100078696731708 0.45242835956588 1589936331.84898
-0.0668606319464921   0.308350518078801   0.123110125856392 0.338683464598032 1589936331.87304
-0.161609844994324  0.153916612664922  0.244106422719491 0.330750678406318 1589936331.89876
-0.185784125600182  0.271529261013866     0.441106715728 0.550289937734739 1589936331.92612
0.0278902593080619   0.31662319907498  0.302409791835648 0.438725197538078 1589936331.94946
0.0436533604345272  0.282086276319567  0.297168656181679 0.412052779849731 1589936331.97333
-0.184228466321854  0.159469845098659  0.392746528641089 0.462191080678456 1589936331.99897
-0.246625507799207  0.361301267439199  0.598070361748676 0.740979692402282 1589936332.02654
0.0562353970076361   0.31569111703241  0.339976297596714 0.467340544118897 1589936332.04969
0.0696654660578363  0.183356019699548   0.29046555435926 0.350489579574556 1589936332.07354
-0.185714644437625  0.162831366384224  0.435836125562608 0.500956197069736 1589936332.09914
-0.294566999733853   0.39084451228157  0.659153496627897 0.820982632112035 1589936332.12691
-0.0104794631919277   0.387441026067849   0.380606920407154 0.543214502467595 1589936332.14994
-0.0354365744752813   0.209948007316049   0.307409896467324 0.373944863626408 1589936332.17378
-0.323998373677666  0.201095220807267  0.472238319430309 0.606978800548799 1589936332.19931
-0.432099022132392  0.433479468953037  0.714442722327415 0.940766930976097 1589936332.22733
0.0225338114506397  0.383452765103883  0.370049958820643 0.533367385342848 1589936332.25021
-0.0121568716251269    0.21897093673154   0.276339956862995 0.352788651206129 1589936332.27391
-0.333375323981292  0.222312054478968  0.459064923805552 0.609345846358936 1589936332.29956
-0.441346407498666  0.378942209375258  0.697585034720459 0.908299911991697 1589936332.32763
0.0359099829384782  0.280504949828727   0.31302733124574 0.421851471325973 1589936332.35046
0.0153038142600913 0.0869602007016661  0.210367634743615 0.228146498953204 1589936332.37401
 -0.14403623091342 0.0446122160420536  0.477028748305449 0.500293026481271 1589936332.39977
-0.219973690983988   0.30661669171018  0.766345744325664 0.854217782656431 1589936332.42853
-0.0247446865465709   0.175331878912237   0.320161559633821 0.365864717542351 1589936332.45102
-0.0823454059152567  -0.187471220518558   0.203008830603509 0.288338012931126 1589936332.47423
-0.0240598500955641  -0.233330261169478   0.515659323010853 0.566503684517629 1589936332.49987
-0.0463742165567238   0.232958765326457   0.807263460656863 0.841483600086997 1589936332.52705
-0.0936929156849947   0.170110941698768   0.339001987232895 0.390689700763981 1589936332.55121
-0.191183264985555 -0.368776275425538  0.206626609675676 0.46394130873779 1589936332.5744
-0.0459379918352888  -0.444117152779051   0.434114554671545 0.622740548755342 1589936332.59992
 -0.0819470634923272 -0.00596196098323321    0.684777167525867 0.689688796022185 1589936332.6264
-0.257924587757123 -0.030131048919621   0.28752864815374 0.387434764299483 1589936332.65129
-0.338150745763923 -0.478337672062939  0.154220628710669 0.605753132633422 1589936332.67447
-0.00210440511494009   -0.577042903777207    0.276404720352448 0.639830063965138 1589936332.69976
0.0493354458543286 -0.121416486883759  0.503144788118022 0.519933291216449 1589936332.72621
-0.0606243455395597  -0.177217070546634   0.187310951879227 0.264889777188801 1589936332.75116
-0.137949087526414 -0.526469642117166  0.106067655647885 0.55448226517625 1589936332.77448
0.117267696570099 -0.60818565147337 0.224075951916338 0.658674070799935 1589936332.80013
 0.135752091972298 -0.276757199335538  0.428661340104797 0.527990267296042 1589936332.82609
-0.0582432510965251  -0.301845868510404   0.137359879436753 0.336706015856522 1589936332.85108
-0.155744923326773 -0.613535168977579 0.0731227221400292 0.637203905518145 1589936332.87455
-0.0103634580562075  -0.704454847527161   0.156157469999319 0.721629537161546 1589936332.90003
0.0963884257478526 -0.465130168603004    0.3012529998864 0.562485708532549 1589936332.926
-0.0389935980470469  -0.465534871315181  0.0150696428283645 0.467408077844266 1589936332.95077
-0.0916002799030486   -0.61053238991258 -0.0140571007108872 0.617525718080697 1589936332.97449
 0.190646376130473 -0.739394205596059 0.0593092417683335 0.765876894911867 1589936332.99961
 0.344947546189977 -0.592399206146367  0.188975624295915 0.711081862828298 1589936333.02583
  0.184409920874829  -0.513161484867577 -0.0502113904437747 0.547597399737119 1589936333.05037
  0.142415646499872  -0.585180695446285 -0.0444125105448333 0.603896625080708 1589936333.07435
 0.0792477408644511  -0.723710598632186 -0.0151871725907055 0.728194950007192 1589936333.0996
 0.225001549151375    -0.568712656635 0.0365255561026188 0.612693968622153 1589936333.12581
 0.186425469068475 -0.465735160243935 -0.184121154744188 0.534382161593347 1589936333.14991
 0.138187927458468 -0.484933052005448 -0.160729677663776 0.529235295029051 1589936333.17386
-0.0737380085470086  -0.543657858558463   -0.16736267931209 0.573595177371091 1589936333.19951
0.0570608385535066 -0.356290859406407 -0.155041256478026 0.392730068880994 1589936333.22584
 0.125718167009862 -0.294693160426635 -0.336753536154652 0.464814006276941 1589936333.24935
 0.110384332406731 -0.335554996142317 -0.326318646464845 0.480900941262958 1589936333.27335
-0.0691232902510958  -0.415995377603851  -0.420249158634343 0.595348249998084 1589936333.2995
0.0775949931885268 -0.188772726563628 -0.390753591609831 0.440845204826111 1589936333.32591
0.0908429954189239 -0.175826005608055 -0.427686202828961 0.471256535397676 1589936333.34873
0.0759815550394196 -0.263766381525601 -0.415836389533279 0.498262785675782 1589936333.37282
-0.105258167530739 -0.364864629860317 -0.533243945961665 0.6546408067481 1589936333.39948
0.0312448467956165 -0.174402047933622 -0.470704131846424 0.502946015504665 1589936333.42585
0.0968585907757125 -0.191807582873762 -0.385301726134496 0.441167944911181 1589936333.44796
 0.117245504444804 -0.307628409562787 -0.367540168800845 0.49342428230155 1589936333.47226
0.0107127769627281 -0.389025890658506 -0.558297061747457 0.680552361210172 1589936333.49928
  0.160695229020846 -0.0956275609838636  -0.505392376658998 0.538877575553869 1589936333.52557
0.0367436331338418 -0.107767344627765 -0.398346094678105 0.414298812802175 1589936333.54756
0.0327375029075344   -0.4186176020916 -0.391115486874313 0.573832523433861 1589936333.57219
0.0436831458234853  -0.51231608916027 -0.660239954717336 0.836834983880729 1589936333.59908
  0.134601743544131 -0.0135992670216861  -0.563199885957106 0.579220753228632 1589936333.62539
-0.0361714795131909 -0.0164336283593782  -0.375592683926634 0.377688104512758 1589936333.64717
-0.0293776947135347  -0.379027659695385   -0.36433206771615 0.526557566964114 1589936333.67216
0.0705951255844223 -0.460738287182214 -0.640661602578933 0.792281976351152 1589936333.69889
 0.133842878420276 0.0317624363304824 -0.569679571233904 0.586052542308893 1589936333.72511
-0.0586826398850485  0.0159409238164257  -0.415513236022377 0.419939298691831 1589936333.74674
-0.0382630363201377  -0.333891840536157  -0.434191064214011 0.549062565987114 1589936333.77254
 0.237405704240478  -0.37852987575363 -0.715448035938585 0.843511841868479 1589936333.79884
0.278915329439423 0.223934114844603 -0.64324787203204 0.736008202169844 1589936333.82507
-0.228007151337815  0.157990191707546 -0.354074875608211 0.449796819990918 1589936333.8467
-0.244558975496255 -0.432640243204437 -0.306866866210269 0.584083851954052 1589936333.87334
 0.168796945146373 -0.478277458689226 -0.599133443169498 0.784985744396107 1589936333.89875
 0.183865118923678  0.312893442787362 -0.556648576588436 0.664504572079138 1589936333.92474
-0.331056888684992  0.283677642019791 -0.305486250691275 0.532347177591005 1589936333.94639
-0.333026083360529 -0.309715449203338 -0.238170204093546 0.513376156235991 1589936333.97335
 0.173622024794667 -0.389623524757102 -0.486021507643184 0.646659109910084 1589936333.99861
0.196465785050581 0.394349106286569 -0.45167360953292 0.630966775569882 1589936334.02458
-0.362118844690458  0.339427903394719 -0.236776506187265 0.549913150565737 1589936334.0462
-0.366428850720709 -0.327849283973806 -0.139139584333354 0.510994206983891 1589936334.07329
 0.154868476615528 -0.376151154770438 -0.390267675185638 0.56372226723729 1589936334.09851
 0.165988485443467  0.496766578801943 -0.366280897392883 0.639132933676038 1589936334.12492
-0.354567138277259  0.500812416033265 -0.194166569496637 0.643608256868488 1589936334.14682
-0.393736614211189 0.0568762732984543 -0.118296083356917 0.415039028492982 1589936334.17364
  0.117701166831299 -0.0308820110974926  -0.322150120863174 0.344366031505769 1589936334.1985
 0.141408873879542  0.741215505182682 -0.304064164143408 0.8135428142706 1589936334.22542
-0.358818005452169  0.715279124161207 -0.213888077042926 0.828325235640335 1589936334.24782
-0.411061693718925  0.137762225712278 -0.133817869504444 0.45371507477158 1589936334.27407
 0.0343816612932639 -0.0104896917177694  -0.232063479759836 0.234830983696493 1589936334.2986
0.0508509318901471  0.641723966267083 -0.185036082335294 0.669801327202064 1589936334.32602
-0.370736279622758  0.615450606415844  -0.12729085939844 0.729676504248662 1589936334.34886
-0.429797675988619  0.112403677150658 -0.050927338614586 0.44716241203904 1589936334.37401
-0.0634293146590574  -0.104978743688919  -0.137980363906518 0.184614179868168 1589936334.39866
-0.0361114971825832   0.538945006590412 -0.0411519089710642 0.541718783105654 1589936334.42637
 -0.241589304008131   0.528119356100906 -0.0180902408335901 0.581035887801249 1589936334.44934
-0.246913022668026  0.193021820066582  0.036272663085289 0.315498288223845 1589936334.47397
-0.018318593993698 0.0249608658761797 -0.041175321412705 0.0515172088202975 1589936334.4987
-0.0132245708953962   0.639875739596724  0.0444219013543826 0.641552146531956 1589936334.52645
 -0.200127275386325   0.696771885533737 -0.0383714248466013 0.725957542194136 1589936334.54965
 -0.204388484392578   0.500456129733558 -0.0324425961121749 0.541556564342715 1589936334.57387
  0.0593350201845571    0.361101732790917 -0.00423363963350853 0.365968618530949 1589936334.59863
0.054925102012637 0.812857716075933 0.163000329181792 0.830857112100904 1589936334.62635
-0.037778015810221  0.847640345376655 0.0570316294480115 0.850396343093212 1589936334.64953
-0.0605799765319436   0.551420840932941  0.0458380525747745 0.556629144436087 1589936334.67336
-0.179816593890826  0.342908265140866 0.0771333777286168 0.394803297478938 1589936334.69778
-0.205366001459639  0.606400823410655  0.246842032378964 0.686169178947596 1589936334.72634
-0.101701051019524  0.566525713104854  0.109682942066463 0.58593927600716 1589936334.74937
-0.0952333277320264   0.291160013239681   0.112759635817092 0.32643265077233 1589936334.773
-0.188723776874413  0.157238961132654  0.273415730980327 0.367555324819715 1589936334.7973
-0.272920511066972  0.455317420953645  0.521741999045364 0.744321350461472 1589936334.82637
-0.0772126277195949   0.465243515891858   0.391116598166384 0.612687124330214 1589936334.84929
-0.0949795038404838   0.263309520632046     0.3996809217792 0.487952711888697 1589936334.87267
-0.235973123149626  0.177825184549887  0.578560340982278 0.649643886499919 1589936334.89717
-0.348250829582279  0.447385138332059  0.847919736172196 1.01999999083111 1589936334.92639
-0.116611124837411  0.433501759256938  0.516471861150226 0.684298993916172 1589936334.94923
-0.143684861737456 0.0506111122108914  0.420649757338662 0.447384669519207 1589936334.97257
 -0.674765107562093 -0.0151934675310422   0.512465410283667 0.847442970692487 1589936334.99636
-0.856579555975914  0.158370374371628  0.746752971379793 1.1473664242338 1589936335.02667
 -0.10216767623764 0.0545457870885154  0.350549923508237 0.369186573196448 1589936335.04937
-0.103161365618062 -0.115121029363329  0.240221738486113 0.28565994188746 1589936335.07277
-0.371816271144777 -0.195071957390857  0.528049165490291 0.674637924536784 1589936335.0957
-0.469706213893463 -0.129745360457826  0.824235883485043 0.957508526100333 1589936335.12756
-0.0257250317206749   -0.16418838657929   0.338403799697524 0.377010258738754 1589936335.14995
-0.086184464153649  -0.25335321572599  0.233913778920359 0.355431104082007 1589936335.17333
-0.41902543387286 -0.24046593130387  0.49039896101484 0.68840200414773 1589936335.19594
-0.494973557962968 -0.164825713743994  0.730192728098902 0.897411699924986 1589936335.22853
0.0520298579087617 -0.124944890386711   0.16109419674371 0.210403593059278 1589936335.25074
-0.00653465714407602  -0.0410921895276434   0.0303042155413318 0.0514744136804091 1589936335.27397
 -0.610138280446277 -0.0743675442207319   0.242862234613334 0.660894331872157 1589936335.29642
-0.722400698158005 -0.145539801573157  0.437983607955188 0.857248064085636 1589936335.32955
  0.0911609458979661   -0.217749025335639 -0.00269834068453532 0.23607676110554 1589936335.35151
 0.0771052245558912 -0.0448151703829007 -0.0978721117370025 0.132410594010159 1589936335.3746
 -0.346782551104199 -0.0892082715375836   0.108983808353938 0.374290961611936 1589936335.39675
-0.359806362581281 -0.205075248883372  0.235113290253746 0.476229708767199 1589936335.42989
  0.544927486010939    -0.2973544799104 -0.0937074954065017 0.627811075426634 1589936335.4518
  0.588889621480215 -0.0036442101481149  -0.136596466794783 0.604535244047469 1589936335.47485
  0.240814799500131 -0.0693365660264061  0.0519756308182839 0.255931227570183 1589936335.49711
 0.330994299147741 -0.136744331394403  0.171645941445421 0.397137970296837 1589936335.5282
 0.743099999003407 -0.186719101250148 -0.190692669001258 0.789572875231507 1589936335.55133
 0.681687851504063 -0.184267459029024 -0.271514755853567 0.756553425735063 1589936335.57459
 0.271053565105453 -0.232182921653532 -0.115065959556933 0.37499215900163 1589936335.59828
 0.341993715445993 -0.225733765524266 0.0266518596001991 0.410640665207999 1589936335.62842
  0.467674269696993  -0.217154382754355 -0.0938441705257643 0.524101113171599 1589936335.65091
  0.43507427156985 -0.316896601638473 -0.106983812743093 0.54877920341527 1589936335.6743
 0.373932353578388 -0.368260006246009 -0.115610554846605 0.537407329355418 1589936335.69935
  0.525048775437908 -0.0865295927592561 0.00212647567793413 0.532135423469194 1589936335.72724
  0.588145662249382 -0.0474922397655867  -0.124645595582682 0.603081551167732 1589936335.75026
 0.552459169043191 -0.250285934303574 -0.159503221248584 0.627132729140156 1589936335.77396
  0.28139097064202 -0.345906764624647  -0.25757421593738 0.514953245341464 1589936335.79898
  0.362394678075517 -0.0740751165982866  -0.134500758925144 0.393582875323542 1589936335.82685
  0.473163389814843 0.00551501541636536   -0.14753096912055 0.495660565009729 1589936335.84979
 0.442315905803514 -0.133778364057781  -0.15944370780709 0.488837710468446 1589936335.87366
 0.146977576358141 -0.254380104107164 -0.204221358136652 0.35779604307044 1589936335.89852
  0.288261219111549 0.00205974964180867 -0.0958549888518041 0.303787675688206 1589936335.92603
  0.549577094250573   0.025582801349529 -0.0690596886111875 0.554489587675789 1589936335.94933
   0.55598889962799  0.0158487469009793 -0.0854419916105089 0.5627389920898 1589936335.97334
  0.287947925944057 -0.0635021668728288  -0.188552502777671 0.349997970789478 1589936335.9982
    0.3966146640654   0.182921210454112 -0.0640215539458377 0.441431897754736 1589936336.02529
  0.355816551335528   0.170560902024042 -0.0329448826640553 0.395956821885053 1589936336.04896
  0.331003765820153 -0.0204365672343092 -0.0295434561279924 0.332947386335186 1589936336.07302
 0.100450220686107 -0.134999365286605 -0.178590364691477 0.24537643290322 1589936336.09795
  0.188785066237035   0.179531514132994 -0.0701241560544862 0.269793927032023 1589936336.12503
 0.0912859587257303   0.163150172375472 0.00844087362619201 0.187142601654982 1589936336.14878
 0.0460280197768703 -0.0379128811028391  0.0372107620112801 0.0702894442114754 1589936336.17289
-0.122081530348441 -0.157468699390307 -0.150003474148426 0.249401951869847 1589936336.19787
-0.00840507941564085    0.178878201003479   -0.043605734995546 0.184308210014437 1589936336.22532
0.0477555079300805  0.164048619057956 0.0628171276995014 0.182039911791063 1589936336.249
0.0526878202698672 0.0362062033355135 0.0856953093834055 0.106913898138081 1589936336.27301
 -0.174251374142215   -0.10681217447857 -0.0653622947916167 0.214580081992054 1589936336.29786
-0.135918458814497  0.179417573613967 0.0673008880595555 0.23493382621844 1589936336.32585
-0.111434215749547  0.199151339815076  0.118049766506762 0.256933041787462 1589936336.34934
-0.141629068697669 0.0557781914904649  0.112407085077577 0.189223023233839 1589936336.37325
 -0.319086580438505 -0.0694181683568165   -0.07748471515252 0.335617355028343 1589936336.39804
-0.298501655013016  0.189441961271174 0.0583085975109569 0.358317439262274 1589936336.42602
-0.161041261638498  0.153190115319574  0.127919468055902 0.256446660515298 1589936336.44938
  -0.215731240206034 -0.00597182640468498    0.114698403336402 0.244399988623897 1589936336.47337
 -0.463581637864683  -0.105265359567375 -0.0315160852930399 0.476426273963086 1589936336.49824
-0.467516456889822  0.155700816795158  0.109238391782102 0.504725081655976 1589936336.5267
-0.152837718245673   0.14355523712321 0.0901777794645343 0.228253162372833 1589936336.54982
 -0.15958377613964 0.0626918193319612 0.0457546246518749 0.177456280517687 1589936336.57367
  -0.452534704691767  -0.0119429653276543 -0.00335601308295198 0.45270471192058 1589936336.59836
-0.42555715238191 0.147883001341678 0.158085575321427 0.477450857318247 1589936336.62672
-0.0835152964143574  0.0861779256502078   0.099323598062844 0.155777459013492 1589936336.64986
-0.109443651174743 0.0429555604155551 0.0693447826531434 0.13649832172699 1589936336.67371
   -0.47287362503302 -0.00749577299317549   0.0400436626185001 0.474625269850372 1589936336.69854
-0.493039763502195  0.200719156608791  0.223519325305811 0.577353684503017 1589936336.72717
-0.0848228317943501   0.108881902707529   0.133562906172625 0.192065695625486 1589936336.75017
-0.105141671859324 0.0658251452757672 0.0885855772785589 0.152430723326123 1589936336.77388
-0.419653550239744 0.0220771467706021 0.0830422857725844 0.428360273443614 1589936336.79872
-0.442478612013111  0.265571580498999  0.321475513914163 0.607998431333635 1589936336.82748
0.0086458046366309  0.143168111646854  0.201844264918299 0.247614550078846 1589936336.85048
-0.0316328517281015  0.0464109282228611   0.158428235872304 0.168089611483191 1589936336.87399
-0.458783264325282 0.0183159444012046  0.198007454592694 0.50002450891786 1589936336.89872
-0.51611718645942 0.182606298313651 0.399608241101948 0.67779698782098 1589936336.92641
0.0289349129638435 0.0507677276302887  0.218146533098837 0.22583733362757 1589936336.95078
0.0194896205291116 0.0307646201680587  0.164831474027866 0.168806759321577 1589936336.97424
 -0.418131481078913 0.00158844096500139   0.231293581942845 0.477842212097148 1589936336.99884
-0.465454383545051  0.101317458082647   0.44152446072993 0.64950508843002 1589936337.02637
-0.0750684263733351 0.00312213337566273    0.20220976135771 0.215716953305313 1589936337.05103
 -0.107585026050075 -0.0450274207752149   0.116313968882945 0.164714740716082 1589936337.07448
 -0.344200198569219 -0.0729981037649606   0.185220467445978 0.397629376944507 1589936337.09877
-0.351368827101021  0.132833264497431   0.38984894099371 0.541375032310605 1589936337.1269
0.0697728325607283 0.0267824022839015  0.128864248406736 0.148968250822372 1589936337.15154
 0.0311335119634078 0.00211485611685957  0.0448922501928058 0.0546725005001979 1589936337.17486
 -0.386133624355142 -0.0221069219710717   0.140099223423697 0.411358340453425 1589936337.19935
-0.435702907109786 0.0775818183269597  0.310916325966184 0.540855732659964 1589936337.22736
 -0.242614205303085 -0.0324687217674437  0.0436529538959017 0.24863919822083 1589936337.25185
 -0.274752992978127  -0.037697383641108 -0.0385294005898638 0.279990740192668 1589936337.27523
   -0.3443604292452 -0.0247965866655885  0.0244300762012733 0.346115305300709 1589936337.29955
-0.352597295638919   0.07412723875482  0.207841768026286 0.415954205356293 1589936337.32825
 -0.159020399194494 0.00127612358690007 -0.0364915264985263 0.163158657010831 1589936337.35258
 -0.225096068130373 -0.0355036703468925 -0.0758418762834486 0.240168150873608 1589936337.37564
-0.401097487923837 -0.055419869514145 0.0570196260595959 0.408903160310303 1589936337.39852
  -0.398100375757232 0.000407380372790496    0.239785520545315 0.464737744324695 1589936337.42925
-0.0542338458463849 -0.0892762132181218  -0.118191955708753 0.157736776549151 1589936337.45306
-0.137813325703802 -0.126616373184436 -0.171963564480087 0.254156814208511 1589936337.47605
 -0.409899441737347  -0.144094349819185 -0.0182275720061626 0.434871220440767 1589936337.49879
-0.493889238841759 -0.188922398685927  0.115804053644269 0.541321375718141 1589936337.53096
0.0244881942285932 -0.259693463149544  -0.23621799362452 0.351908094495104 1589936337.55328
0.00862417981113589  -0.204552442811648  -0.280353387200317 0.34715140796534 1589936337.57633
 -0.416400431042211  -0.154296320930415 -0.0760736703526006 0.450537320258507 1589936337.59933
-0.467109264216609 -0.303829869811679 0.0432405367989659 0.558903747106267 1589936337.63134
0.0270510126060379 -0.328368368776858 -0.245582819205536 0.410936082603032 1589936337.65323
0.0342522093058418  -0.23889886642823 -0.271115334513066 0.362973011160824 1589936337.67634
-0.170572979454821 -0.240043398887792 -0.100943496303793 0.311296585454663 1589936337.69928
 -0.153398891316914  -0.362483712560827 -0.0429994777071112 0.39594774505258 1589936337.73105
 0.109270625596478 -0.222565000107253 -0.337024667899664 0.418402767275583 1589936337.75292
0.0568819187429743 -0.280235007310677 -0.397014666727354 0.489272784445374 1589936337.77617
-0.143177191707356 -0.342519830932094 -0.234172676853854 0.438926400882717 1589936337.79976
-0.0335506656144909  -0.334450165080055  -0.181095237635533 0.381808911864982 1589936337.83056
 0.207182875315504 -0.213568106181618 -0.396952466250745 0.496092068334651 1589936337.85257
 0.197852628790461 -0.228041432922319 -0.418335945192962 0.515900688979041 1589936337.87593
-0.0689693185036791  -0.316204853149928  -0.272111395001605 0.42283198476481 1589936337.89967
0.0745659751524673 -0.358495921766195 -0.272016808442829 0.456149706400054 1589936337.93013
 0.167223286696316 -0.244126902883233 -0.450205731414137 0.538745554898614 1589936337.95223
 0.155005753847499 -0.339337181348554 -0.463583003890872 0.595051012828226 1589936337.97563
 0.104433350053136  -0.42718467598063 -0.315074351561441 0.540985137511059 1589936337.99952
 0.297130776622054 -0.334364066457244 -0.296641482961126 0.536732891452746 1589936338.0297
 0.126567005946245 -0.137660023033377 -0.444005387417095 0.481778240470812 1589936338.05171
0.0612894705486026 -0.324800438049552 -0.464516357713433 0.570111542016703 1589936338.07526
0.00556786019059224  -0.458951302944108  -0.377950992011348 0.594570645006595 1589936338.09947
 0.161568682627768 -0.252396117073888 -0.368467856726635 0.474949261038238 1589936338.12921
  0.098839049393919 -0.0601247238989246  -0.424705879229361 0.440180899132391 1589936338.15124
0.0785560082589943 -0.227553076927143  -0.40794424679554 0.473677060607939 1589936338.17496
 0.187531552723675 -0.420087571332432 -0.353767116876421 0.580338542437075 1589936338.19932
 0.389861657822284 -0.201748267806336  -0.34785846599316 0.560089268033152 1589936338.22866
  0.178063498268955 -0.0395653478998514  -0.417195437106282 0.455328517570025 1589936338.25078
 0.168432627149621 -0.202714255661508  -0.40651470219824 0.48447582234849 1589936338.2748
 0.321800333202267 -0.367149302700467 -0.398884286782439 0.630446460188702 1589936338.29921
  0.484761818768624 -0.0662848684946915  -0.399021809090722 0.631352602637588 1589936338.32823
 0.154189764908491  0.078805514805953 -0.396056307914896 0.432256164566274 1589936338.35048
 0.136935245114345 -0.113974809040885 -0.344147336910201 0.387529234965332 1589936338.37497
 0.395927128031061 -0.247621289590049 -0.349797974076269 0.583466551258104 1589936338.39914
 0.565472424935704  0.132875684352532 -0.344041801171794 0.675114636049576 1589936338.42774
 0.195772544626498  0.162684532537591 -0.322472631036406 0.410830554029335 1589936338.45021
 0.183493011967806 -0.151817031263914 -0.243751279521833 0.340782603269792 1589936338.47512
 0.543544010646983 -0.305227391644475 -0.231521967091949 0.664985919675314 1589936338.49902
 0.739037937218584  0.195154371457419 -0.205001295815008 0.791383492772671 1589936338.52735
 0.255608481511362   0.27940973441826 -0.301237731040803 0.4838901384724 1589936338.54999
  0.244564287694642 -0.0452037530356426   -0.25242292942552 0.354361969466048 1589936338.57535
 0.503289804519246 -0.169173387483882  -0.24782224299352 0.585948911158756 1589936338.59897
 0.653440675792187  0.324969732808677 -0.202660499809911 0.757404332047749 1589936338.62698
 0.177787623648144  0.382868618973852 -0.201735414674581 0.467861086275963 1589936338.65001
   0.14928410483525 -0.0437500259192324 -0.0944706856061359 0.182001426267183 1589936338.67542
 0.403040530304882 -0.165505704833684 -0.125814569167238 0.453500951725212 1589936338.6989
  0.520168278285147   0.340487548485809 -0.0402904951710537 0.623000908834922 1589936338.7267
  0.143965322560183   0.359799290702096 -0.0790938453090991 0.395521655608601 1589936338.74984
  0.153324902172272 -0.0356862229630982  0.0294947222970304 0.160162326340771 1589936338.77546
  0.509385336658246  -0.126493553702274 -0.0392302472077178 0.526320294712871 1589936338.7988
 0.635597916096122  0.490164587823322 0.0137879455397252 0.802767800515159 1589936338.82643
  0.20124947985686  0.527883692531701 0.0199704167887893 0.565297588470248 1589936338.84981
0.149884326711066 0.030476828434776 0.161065501522693 0.222117636053125 1589936338.87557
    0.263962972202658   -0.0872770855467387 -4.29623478858743e-05 0.278017521392731 1589936338.89879
 0.382635853195706  0.469983991432297 0.0636086034298637 0.609377717662647 1589936338.9263
 0.148933127648005  0.507990601305562 0.0672470093766654 0.533626918170279 1589936338.94993
0.0992303942072502  0.223139716994973  0.137528417264645 0.280271422000962 1589936338.97555
  0.242742385461495  0.0629968037539458 -0.0734294245165281 0.261312730971108 1589936338.99896
      0.36923027147   0.576671846137592 0.00221600775167831 0.684752745294171 1589936339.02651
0.0765024725523898  0.544336074623477 0.0984925661825952 0.558439948460313 1589936339.05049
0.0199480425679188   0.23010679233348  0.220201537525879 0.319117184446491 1589936339.0756
0.0397014620332829 0.0598543123774314 0.0236030864837837 0.0756032439073636 1589936339.09914
0.120910863143897 0.593587671665916  0.11312322183831 0.616248832939297 1589936339.12681
0.159632438006328 0.556526536062239 0.107525365682698 0.588868410487841 1589936339.15091
0.152900329335523 0.336483777211729 0.143180105907228 0.396358910288628 1589936339.17563
0.0566115964843845  0.159789280336272 0.0241702713186627 0.171235770160654 1589936339.1993
0.151361186789205 0.606861119940137 0.152122150221399 0.643686085253686 1589936339.22694
-0.00751251003927191    0.565774262832441    0.166173057439679 0.589720645144404 1589936339.25137
-0.0730524338556661   0.214806305036395     0.2142510384904 0.312060754132653 1589936339.27576
-0.0679844117045121 -0.0112238457767481  0.0756112342808033 0.102298160776699 1589936339.2994
0.0150628401820213  0.484135896701742  0.258582847443639 0.549071529603939 1589936339.32715
-0.048818880315799  0.513535786390353   0.27888630366682 0.586412702242873 1589936339.35153
-0.106817825499576  0.154299199506735  0.309330314441593 0.361805934508282 1589936339.37578
 -0.130699371898091 -0.0914351516623926   0.172118486033553 0.234664624535874 1589936339.39938
-0.0634836195412282   0.367879646915059   0.347803305243313 0.510228129078138 1589936339.42733
-0.133981077353849  0.431460641980408  0.269354091984542 0.525985590616188 1589936339.45176
-0.209174860562259 0.0843414718637401  0.249860582363509 0.336597559091587 1589936339.47591
 -0.24664169561797 -0.111631373184121  0.134322309478906 0.302218749120611 1589936339.49944
-0.233770864664198  0.313721768602133  0.360714765461222 0.532151582993457 1589936339.52876
-0.170259875916522  0.346441927249416  0.310609527171994 0.495468175237733 1589936339.55228
-0.23554498995064 0.107914800723162 0.280618345773826 0.381934159889902 1589936339.57631
 -0.363592452474461 0.00864228245664789   0.141457316152755 0.390236252590138 1589936339.59953
-0.390402928130162  0.405087725383613  0.372007571981805 0.674462856768904 1589936339.62981
-0.225471742945313  0.330580513205247  0.284377167066358 0.490908704064747 1589936339.65274
-0.298114239350896 0.0233448437600925  0.241886301654601 0.384611575959548 1589936339.67659
  -0.533557092923453 -0.00241875073300805    0.140295264795762 0.551698996816332 1589936339.69966
-0.650165457066797   0.36169348716369  0.400082383569847 0.844750385535537 1589936339.73054
-0.236287307859311  0.217423530750896   0.27918161299162 0.425496247471338 1589936339.75309
  -0.286855527035525 -0.00985058921334412    0.227477536543866 0.366236477061945 1589936339.77677
 -0.417528603274691 -0.0281513992698294   0.157748024060302 0.447221505440305 1589936339.79973
-0.491678186113386  0.296071202633265   0.46068359966199 0.735958541445091 1589936339.8306
-0.302356856399215  0.194749645863846  0.316174351880339 0.47886669748758 1589936339.85326
 -0.44809495478724 -0.167522106006012  0.251293050167738 0.540371114669422 1589936339.87684
-0.588738639025213 -0.247930180243909  0.221249062361754 0.676042681310132 1589936339.89974
-0.738765405284039 0.0499504579370278  0.538046831202897 0.915294359678943 1589936339.93085
 -0.406663127183144 -0.0315389568900489   0.237651192097184 0.472067467548124 1589936339.95351
-0.494169441123794 -0.252407551027804  0.121787567095473 0.568106697597811 1589936339.97692
-0.641143002135048 -0.281714331458274  0.183201892345321 0.723871706239877 1589936339.9998
 -0.768630701261511 -0.0394924211767549   0.447852117764374 0.890462983867494 1589936340.029
-0.292307048798076 -0.157573393942936  0.148174869542276 0.363632475474354 1589936340.05367
 -0.273452947111707 -0.0361183097971173  0.0228258215231305 0.276770780095884 1589936340.07704
 -0.477324742200921 -0.0770540590050045  0.0558571044981436 0.486719892391136 1589936340.09998
  -0.569133779925684 -0.00686725751997665    0.282838959538359 0.635577135925361 1589936340.12972
-0.0933182229178388  -0.182955285982653  0.0196444312505443 0.206317306779376 1589936340.15405
 -0.105356844030026 -0.0987273188549885 -0.0613108013030821 0.156863515288571 1589936340.17726
   -0.52562801237137  -0.0622077019508809 -0.00211854296189172 0.529300570371664 1589936340.20013
-0.681787749905666 -0.140358174915736  0.157306932526933 0.713638861195311 1589936340.23038
 -0.057084945547962  -0.305960394395544 -0.0765871479626634 0.320524640519173 1589936340.25426
-0.0465376977954469  -0.152266850711162  -0.125493172809086 0.202730085491244 1589936340.27747
 -0.581322663813837 -0.0695018109473529  -0.029844818628781 0.586222870918187 1589936340.30011
-0.714550394889769  -0.22318607717994 0.0778136432778532 0.75262823157537 1589936340.33092
-0.100833207850317 -0.349014054036428 -0.193498671809628 0.411606464614464 1589936340.35399
-0.0947150482854834  -0.142556898076021  -0.230075081414907 0.286754167622468 1589936340.37731
 -0.527171775505671 -0.0817172186315665  -0.108797000948763 0.544448870075167 1589936340.39996
 -0.659897350252242  -0.282012163469714 -0.0438139081110985 0.718968032501284 1589936340.43134
-0.000733625328695167    -0.321060080712103    -0.268950892086227 0.418825376483997 1589936340.4535
0.0267252661870744 -0.154790635154409 -0.296708103564467 0.335723218299089 1589936340.47668
-0.548246321321065 -0.109388861982527 -0.139901964578427 0.576292036784143 1589936340.49971
-0.585085227688688 -0.350920859410123 -0.109804835548354 0.691033483369992 1589936340.53082
0.0870224598351724  -0.35734567869013 -0.350972917914043 0.508380597292394 1589936340.5526
 0.129324367957557 -0.118210917228683 -0.372632303696915 0.411768681249726 1589936340.57583
-0.410577800389341 -0.100842786345201 -0.250791582451832 0.49156872923235 1589936340.59946
-0.348040840660039 -0.292642902779607 -0.265944965689028 0.526781757552366 1589936340.63021
 0.132473109909224  -0.29585776018209 -0.446469821422211 0.55173928675577 1589936340.65199
 0.146427360594932  -0.12814870430721 -0.462939681583001 0.50217149573685 1589936340.67515
-0.256818733676289 -0.115485221857131 -0.346960793592786 0.446849516867837 1589936340.6993
-0.0604059409963756   -0.16444221570665  -0.343449345038429 0.385548405030413 1589936340.72987
 0.290858614219201 -0.170854632328146 -0.422991475967094 0.541028490556939 1589936340.7516
 0.253908626225353 -0.181641156487598 -0.445476499298152 0.543978319079662 1589936340.77469
-0.251534209719723 -0.199939205203268 -0.387345443605688 0.503270938082786 1589936340.79908
-0.126771884000747 -0.270650957837556 -0.434417012574588 0.527296114498974 1589936340.82945
 0.240718423579858 -0.235327020484928 -0.481515991975999 0.5875217583628 1589936340.85116
 0.258591626897194 -0.139593904051276 -0.471093232883961 0.55523411424252 1589936340.8742
-0.0783605910346452  -0.218242010563006  -0.384300791044397 0.448839676721245 1589936340.89892
0.0816336398573941 -0.296895370227653 -0.431146427918902 0.529809545333237 1589936340.92892
 0.281650166379964  -0.22417354507273 -0.480146269916034 0.600100854062563 1589936340.9506
 0.294538368909479 -0.173666637464967 -0.477030919735866 0.586916902220656 1589936340.97374
 0.130802299641761 -0.307774128796359 -0.410767468596311 0.529682989348301 1589936340.99877
 0.300761939249336 -0.271029163153099 -0.396857857823607 0.566930957610213 1589936341.0284
 0.306069944051677 -0.159162189183475 -0.368912471380875 0.505081997954607 1589936341.05013
 0.288879329121684 -0.237691845820949 -0.338491695642265 0.504505013238064 1589936341.07346
 0.216831743319741 -0.379135379450189 -0.319303502676961 0.541030838015443 1589936341.09858
 0.372051039074384 -0.239526459989847 -0.322967482294551 0.547816479609073 1589936341.12799
   0.35783030861253 -0.0979433432056177  -0.368628057180948 0.522993377377794 1589936341.14988
 0.361695013623169 -0.168468943489056 -0.362441062657447 0.539044146337238 1589936341.17367
 0.376990225531748 -0.295696746709943 -0.338650676423692 0.586721805290673 1589936341.19852
 0.528833345995887 -0.043108275199508 -0.343919147172726 0.632300095698156 1589936341.22754
 0.325732995351875 0.0480040146443482 -0.353630864586537 0.483178184597671 1589936341.24965
