-0.0550988050517   0.227732015993  -0.410874427826 1589936333.37
-0.0637088555231   0.223586965645  -0.421991016064 1589936333.4
-0.0725711845555   0.224060154973  -0.427756692971 1589936333.43
-0.0800194900443   0.227690025996  -0.429765937103 1589936333.45
-0.0848730364201   0.232950596218  -0.429728784538 1589936333.47
-0.0865978733708    0.23838592391  -0.429239211085 1589936333.5
-0.085347945915  0.242707798191 -0.429595272255 1589936333.53
 -0.08187654724  0.244856883507 -0.431690094572 1589936333.55
-0.0773311755815   0.244034951032  -0.435973990531 1589936333.57
-0.0729685764454   0.239718909709  -0.442473277641 1589936333.6
-0.0698458374431   0.231666411597  -0.450844556847 1589936333.63
-0.0685523629559   0.219919254427  -0.460444934094 1589936333.65
-0.0690428432748   0.204805824512  -0.470406532517 1589936333.67
-0.070612430367  0.186938052575  -0.47971300588 1589936333.7
-0.0720252341147   0.167192899996  -0.487281775738 1589936333.73
-0.0717722714485   0.146665381878   -0.49205573984 1589936333.75
-0.0684035841587   0.126581571697  -0.493103005734 1589936333.77
-0.0608598051673   0.108166363485  -0.489716083075 1589936333.8
-0.048726900745 0.0924708362222 -0.481496764056 1589936333.83
-0.0323554949141  0.0801759468796  -0.468412290455 1589936333.85
-0.0128188003809  0.0714007562587  -0.450812729587 1589936333.87
0.00827848656343  0.0655522561908   -0.42940668512 1589936333.9
0.0290948933297 0.0612582397599 -0.405199275495 1589936333.92
0.0478855405746 0.0564225118968 -0.379400418863 1589936333.95
0.0633063014144 0.0484300652768 -0.353312770913 1589936333.97
0.074632681252 0.034505858466 -0.32820856242 1589936334
0.0818590809086 0.0121955401726 -0.305204494486 1589936334.02
 0.0856694896454 -0.0201029990655  -0.285144520704 1589936334.05
 0.0872935545903 -0.0626604582943  -0.268501812082 1589936334.07
0.0882784651238 -0.114105380606 -0.255312671418 1589936334.1
0.0902163250416 -0.171382879397 -0.245155136343 1589936334.12
0.0944695697445 -0.230039133369 -0.237182100951 1589936334.15
 0.101934577987 -0.284820840846 -0.230212625217 1589936334.17
   0.1128769853 -0.330505462302 -0.222876426558 1589936334.2
 0.126862610271 -0.362817808143 -0.213796804436 1589936334.23
 0.142796184646  -0.37925714695 -0.201788420146 1589936334.25
 0.159066266133 -0.379664782016 -0.186040772693 1589936334.27
  0.17377922895 -0.366404589719 -0.166257771732 1589936334.3
 0.185050059042 -0.344099545809   -0.1427290019 1589936334.33
 0.191305829818 -0.318950736212 -0.116318003065 1589936334.35
  0.191551946806  -0.297744891584 -0.0883651340799 1589936334.37
  0.185553625045  -0.286717587068 -0.0605151495772 1589936334.4
  0.173896828738  -0.290471317043 -0.0344905384097 1589936334.43
  0.157913250436  -0.311144374414 -0.0118394277061 1589936334.45
 0.139479105469 -0.347987094256 0.0063094458532 1589936334.47
  0.12072199005 -0.397432538069 0.0194527030898 1589936334.5
0.103688624344  -0.4536607771 0.027851346978 1589936334.53
0.0900355475132 -0.509564625533 0.0325815098839 1589936334.55
0.0808030640129 -0.557946540348 0.0354832887272 1589936334.57
0.0763196546247 -0.592727516495 0.0390022648335 1589936334.6
0.0762605876149 -0.609941175102 0.0459276839392 1589936334.63
0.0798528907691 -0.608323926833 0.0590433756442 1589936334.65
0.0861835545656 -0.589389480566 0.0807234196714 1589936334.67
0.0945362414531 -0.556978622389  0.112522987391 1589936334.7
 0.104663840608 -0.516382209131  0.154830926419 1589936334.73
 0.116909254428 -0.473223232928  0.206657348415 1589936334.75
 0.132118734719 -0.432332273174  0.265620016473 1589936334.77
   0.1513460342 -0.396848177227  0.328164684741 1589936334.8
 0.175408320456 -0.367722922483  0.390009622873 1589936334.83
 0.204408390094 -0.343718554195  0.446752607287 1589936334.85
 0.237365191452 -0.321875935438  0.494533348304 1589936334.87
0.272084644207 -0.29833475031 0.530619697618 1589936334.9
 0.305353077789 -0.269314323917  0.553791780539 1589936334.93
 0.333455141695 -0.232039776254  0.564436369201 1589936334.95
 0.352925778077 -0.185421005464  0.564327203913 1589936334.97
 0.361366965611 -0.130355008297  0.556140361702 1589936335
  0.358119252503 -0.0696084334177   0.542817544707 1589936335.03
  0.344592352809 -0.0073262610708   0.526926243955 1589936335.05
 0.324130053186 0.0517151004127  0.510163661042 1589936335.07
0.301396109823 0.102949334488 0.493111575922 1589936335.1
0.281389522792 0.142787823461 0.475283254922 1589936335.13
0.268296042776 0.169170756154 0.455429562718 1589936335.15
0.264432503666 0.181811354383 0.432010053475 1589936335.17
0.269530403845 0.182109794351 0.403701739995 1589936335.2
0.280538589745 0.172781153268 0.369819953403 1589936335.23
0.292017262513 0.157296290444 0.330558605344 1589936335.25
0.297069849042 0.139264645933 0.287009997481 1589936335.27
0.288641600307   0.1218873685 0.240981730472 1589936335.3
0.260928878886 0.107579055654 0.194674760308 1589936335.33
0.210610567242 0.097805555293 0.150311067111 1589936335.35
 0.137642756871 0.0931283155892  0.109798184364 1589936335.37
 0.045445724028 0.0933984772404 0.0744951061859 1589936335.4
-0.0595606526086  0.0980181905396  0.0451089671243 1589936335.43
-0.168979126677  0.106187104885 0.0217153368368 1589936335.45
 -0.273803901042   0.117075235318 0.00386714340899 1589936335.47
  -0.365855348865    0.129899719162 -0.00925507402774 1589936335.5
 -0.438994752545   0.143919388361 -0.0186942480062 1589936335.53
 -0.489893723719   0.158385668801 -0.0255944571417 1589936335.55
 -0.518243184065   0.172494430627 -0.0311084079849 1589936335.57
 -0.526417300258   0.185371983767 -0.0363206672554 1589936335.6
 -0.518724674996   0.196106819851 -0.0421674101906 1589936335.63
 -0.500453394641   0.203816969058 -0.0493423023083 1589936335.65
-0.476931863581   0.20772940478  -0.05819615342 1589936335.67
 -0.452784798328   0.207246805266 -0.0686557205755 1589936335.7
 -0.431481626733   0.201986861286 -0.0801952090159 1589936335.73
 -0.415181975539   0.191794443556 -0.0918877917606 1589936335.75
-0.404809370888  0.176739564201 -0.102545112736 1589936335.77
-0.400249301202  0.157117965513   -0.1109267375 1589936335.8
-0.400575293859  0.133464701324 -0.115978022359 1589936335.83
-0.404245237051  0.106577760737 -0.117042331178 1589936335.85
-0.409259175323 0.0775350569937  -0.11399650841 1589936335.87
-0.413308015033  0.047680148279 -0.107276163722 1589936335.9
 -0.413955805335  0.0185537744038 -0.0977841279274 1589936335.93
   -0.40888335524 -0.00823949179961  -0.0867035862714 1589936335.95
 -0.396185930373 -0.0312201825637 -0.0752593478809 1589936335.97
 -0.374678489185 -0.0492475104943 -0.0644812076718 1589936336
 -0.344135778461 -0.0617111215339 -0.0550205720837 1589936336.03
 -0.305393510511 -0.0686516637729 -0.0470571781133 1589936336.05
 -0.260262690877 -0.0707728804097 -0.0403111368017 1589936336.07
 -0.211254023837  -0.069332163795 -0.0341520380997 1589936336.1
 -0.161159223929 -0.0659258217185  -0.027776613087 1589936336.13
 -0.112575927321 -0.0622110141998 -0.0204135456274 1589936336.15
-0.0674808997315 -0.0596213569541  -0.011510746718 1589936336.17
  -0.0269468914688     -0.05913423352 -0.000866750604133 1589936336.2
0.00893597267278 -0.0611354517886  0.0113182096036 1589936336.23
 0.0409236396749 -0.0654045044565  0.0244777529095 1589936336.25
 0.0703079773281 -0.0712169156269  0.0377892878787 1589936336.27
  0.098514374528 -0.0775355437449  0.0503310590428 1589936336.3
   0.1267055141 -0.083245990162   0.06125085723 1589936336.33
   0.15548112956 -0.0873856129399  0.0699113981671 1589936336.35
  0.184733946078 -0.0893213128296  0.0759858287459 1589936336.37
  0.213681143553 -0.0888461556199  0.0794905053953 1589936336.4
  0.241049643139 -0.0861851573865  0.0807571088852 1589936336.43
  0.265361645498 -0.0819210945788  0.0803583474867 1589936336.45
  0.285249999631 -0.0768668872999  0.0790082968895 1589936336.47
  0.299733020156 -0.0719183313043  0.0774592931088 1589936336.5
  0.308393623162 -0.0679186178102  0.0764135485719 1589936336.53
  0.311433782075 -0.0655558377156  0.0764613116123 1589936336.55
  0.309606003786 -0.0653006383791   0.078050139891 1589936336.57
 0.304051245058 -0.067378756781 0.0814829145279 1589936336.6
  0.296090370767 -0.0717666732968  0.0869365645519 1589936336.63
  0.287019812827 -0.0781994566595  0.0944900129089 1589936336.65
  0.277951943391 -0.0861859652268   0.104149318613 1589936336.67
  0.269721271239 -0.0950339444801   0.115860592573 1589936336.7
 0.262855690232 -0.103892267844  0.129506394704 1589936336.73
 0.257594871032 -0.111817238093  0.144887523386 1589936336.75
 0.253930861119 -0.117864433047  0.161697540137 1589936336.77
 0.251650243374 -0.121199063255  0.179500420545 1589936336.8
 0.250369236621 -0.121209348187  0.197721497346 1589936336.83
 0.249566595674 -0.117602122283   0.21565852774 1589936336.85
 0.248628027666 -0.110459942941  0.232514560122 1589936336.87
 0.246916306027 -0.100244955916  0.247449194198 1589936336.9
  0.243872802422 -0.0877452388564    0.25964139648 1589936336.93
  0.239141762032 -0.0739712978454   0.268355843745 1589936336.95
 0.232693731421 -0.060020579452  0.273005465717 1589936336.97
  0.224914547464 -0.0469339530411   0.273204540218 1589936337
  0.216624929585 -0.0355690493235   0.268808342463 1589936337.03
  0.209004948879 -0.0265110780445   0.259936307853 1589936337.05
  0.203417648481 -0.0200331238317   0.246975938236 1589936337.07
  0.201153797881 -0.0161066361356   0.230564731488 1589936337.1
  0.203147789376 -0.0144513974451   0.211547764945 1589936337.13
  0.209732988087 -0.0146057176472   0.190909755616 1589936337.15
  0.220504751189 -0.0159948474726   0.169683142716 1589936337.17
 0.234337500887 -0.017980124183   0.14883842737 1589936337.2
  0.249563013979 -0.0198820384438   0.129169109024 1589936337.23
  0.264272234084 -0.0209833964188   0.111189361589 1589936337.25
  0.276667722764 -0.0205289308845  0.0950657676096 1589936337.28
  0.285380598857 -0.0177409439458  0.0806027306578 1589936337.3
  0.289678148433 -0.0118654325557  0.0672931814874 1589936337.33
   0.289520437551 -0.00225153047002   0.0544322995962 1589936337.35
  0.28546464669  0.011546655664 0.0412752360736 1589936337.38
 0.278452289017 0.0296676346535 0.0272053714571 1589936337.4
 0.269538180102 0.0518657268047 0.0118728063295 1589936337.43
   0.259627250252   0.0774826833538 -0.00473298446096 1589936337.45
   0.24927683646   0.105480698819 -0.0222969994051 1589936337.48
  0.238601763113   0.134536436168 -0.0402769360421 1589936337.5
  0.227292881769   0.163182576845 -0.0580602640025 1589936337.53
  0.214733303666   0.189974003139 -0.0751379048148 1589936337.55
  0.200176446375   0.213652124903 -0.0912474047396 1589936337.58
  0.18294015385  0.233283152671 -0.106446917129 1589936337.6
 0.162572532672  0.248352534813 -0.121100687719 1589936337.63
 0.138956605975  0.258805781556 -0.135781444138 1589936337.65
 0.112339640161  0.265033461509 -0.151117668736 1589936337.68
0.0832941538645   0.26780439585 -0.167627385977 1589936337.7
0.0526344805223  0.268155995366 -0.185581216328 1589936337.73
0.0213195107595  0.267254539684 -0.204926638284 1589936337.75
-0.00963280507258    0.266241149584    -0.22528681102 1589936337.78
-0.0392071671601    0.26608130004  -0.246027132179 1589936337.8
-0.0664325144889   0.267436817361  -0.266367144225 1589936337.83
-0.0904184641079   0.270578826621  -0.285508422314 1589936337.85
-0.110404271362  0.275356985516 -0.302751048872 1589936337.88
 -0.12583143073  0.281233419296 -0.317579541242 1589936337.9
-0.136437889077  0.287378895298 -0.329709772781 1589936337.93
-0.142356553537  0.292815749173  -0.33909803802 1589936337.95
-0.144188293555  0.296580613525 -0.345919708356 1589936337.98
-0.143014820691   0.29787428741 -0.350527197177 1589936338
-0.140323596989  0.296168770244 -0.353395893337 1589936338.03
-0.137836325066   0.29125232836 -0.355063805397 1589936338.05
-0.137260837034  0.283209305374 -0.356067550851 1589936338.08
-0.140014639625  0.272347390911 -0.356875666023 1589936338.1
-0.146986074707  0.259096634813 -0.357821327769 1589936338.13
-0.158397415301  0.243908801937 -0.359040662036 1589936338.15
-0.173811124765  0.227182022707 -0.360428215465 1589936338.17
-0.192281885212   0.20922533186 -0.361624752428 1589936338.2
-0.212614893717  0.190263652002 -0.362051155146 1589936338.23
-0.233659120893  0.170470623621 -0.360994311834 1589936338.25
 -0.25455335105  0.150009021301 -0.357737560956 1589936338.27
-0.274856696465  0.129058929393 -0.351713214893 1589936338.3
-0.294529811241  0.107821855406 -0.342643111129 1589936338.33
-0.313777876972 0.0865012568407 -0.330629810418 1589936338.35
-0.332808356521 0.0652716685129 -0.316168424474 1589936338.37
-0.351583119241  0.044254817893 -0.300066211562 1589936338.4
-0.369647716446 0.0235188094195 -0.283280001975 1589936338.43
 -0.386099058611 0.00310616499795  -0.266704215387 1589936338.45
  -0.39971260507 -0.0169177116861  -0.250958353494 1589936338.48
 -0.409202819475 -0.0364161701189  -0.236227322473 1589936338.5
 -0.413549366096 -0.0551577734097  -0.222198422149 1589936338.53
 -0.412298215597 -0.0728356832685  -0.208116756153 1589936338.55
   -0.4057489098 -0.0891324320503  -0.192951531084 1589936338.58
-0.394966962334 -0.103814178543 -0.175637323082 1589936338.6
-0.381606199615 -0.116825106386  -0.15533515223 1589936338.63
-0.367576943144 -0.128349472293 -0.131653535471 1589936338.65
-0.354638366891 -0.138817201847 -0.104780279423 1589936338.68
 -0.344015653466  -0.148846083823 -0.0754977299766 1589936338.7
 -0.33613826106 -0.159133584984 -0.045080883377 1589936338.73
 -0.330565290344  -0.170326881537 -0.0151022725581 1589936338.75
-0.326115757211 -0.182905454279 0.0128153170193 1589936338.78
 -0.32116901715 -0.197105251803 0.0372499832045 1589936338.8
 -0.31405830321 -0.212899784853 0.0571899294929 1589936338.83
-0.303459895025  -0.23003667253 0.0721655723158 1589936338.85
-0.288686838587 -0.248113690563 0.0822852944774 1589936338.88
 -0.26982588502 -0.266670470418 0.0881741641709 1589936338.9
 -0.24769858546 -0.285271683126 0.0908332136614 1589936338.93
 -0.22366887975  -0.30356262817 0.0914517842861 1589936338.95
-0.199349706302 -0.321285702027 0.0912138617743 1589936338.98
-0.176275699989 -0.338254894579 0.0911387735176 1589936339
-0.155608703175 -0.354295110576 0.0919863330465 1589936339.03
-0.137931148093 -0.369162863686 0.0942383051095 1589936339.05
-0.123163340865 -0.382472419357 0.0981465180335 1589936339.08
-0.110617190702 -0.393653886931  0.103819563923 1589936339.1
-0.099172971252 -0.401964846165  0.111311025915 1589936339.13
-0.0875400940269   -0.40656447536   0.120675749602 1589936339.15
-0.0745428151042  -0.406641564185   0.131975324874 1589936339.18
-0.0593639728635  -0.401570919005   0.145234074527 1589936339.2
-0.0416890410829   -0.39106263239   0.160365251095 1589936339.23
-0.0217183915949  -0.375268985921   0.177097800561 1589936339.25
-5.08794879829e-05    -0.354823952675     0.194934035035 1589936339.28
0.0225239840623   -0.3308066652  0.213158614491 1589936339.3
0.0452652466859 -0.304637337238  0.230903123478 1589936339.33
0.0676858289754  -0.27792674177  0.247253562562 1589936339.35
0.0896709965652 -0.252305746635  0.261375545917 1589936339.38
 0.111482014079 -0.229260251439  0.272627704927 1589936339.4
0.133647063474 -0.20999164338 0.280638837315 1589936339.43
 0.156769232493 -0.195315809516  0.285336557688 1589936339.45
 0.181301075908 -0.185606261329  0.286929883716 1589936339.48
 0.207343610009 -0.180780280059  0.285859902951 1589936339.5
 0.234523665825 -0.180322091318   0.28273743376 1589936339.53
 0.261988250573 -0.183334093898  0.278283458677 1589936339.55
 0.288530256954 -0.188606045434  0.273279429867 1589936339.58
 0.312830042991 -0.194693352801  0.268524810373 1589936339.6
 0.333767142871 -0.199999791678  0.264792844731 1589936339.63
 0.350732252844 -0.202866341969  0.262775014261 1589936339.65
 0.363858670839 -0.201673833643  0.263009837957 1589936339.68
 0.374099947044 -0.194969262698  0.265800509635 1589936339.7
 0.383108401587 -0.181620960303  0.271135065196 1589936339.73
 0.392914119868 -0.160995425454  0.278628955007 1589936339.75
 0.405457021805 -0.133131292981  0.287510565586 1589936339.78
  0.422071633749 -0.0988698403787   0.296664563721 1589936339.8
  0.443049911799 -0.0598941479217   0.304736904798 1589936339.83
  0.467401020886 -0.0186361898623   0.310291485703 1589936339.85
 0.492887083414 0.0219657849693  0.311995339622 1589936339.88
 0.516349980047 0.0588421911517  0.308800730406 1589936339.9
 0.53427326469 0.089244150628 0.300091116259 1589936339.93
 0.54346418911 0.111188652002 0.285764215702 1589936339.95
0.541709189271 0.123803143693  0.26623766912 1589936339.98
0.528259631416 0.127489715545 0.242377864979 1589936340
0.504041533611 0.123864111923 0.215366665027 1589936340.03
0.471543834723 0.115473252649 0.186530978244 1589936340.05
0.434409979898 0.105344999365 0.157164944692 1589936340.08
 0.396820656416 0.0964625610172  0.128373854769 1589936340.1
 0.362796755132 0.0912724501658  0.100963393857 1589936340.13
 0.335562079621 0.0913245881426 0.0753882536128 1589936340.15
 0.317084229674 0.0971091794809 0.0517622502326 1589936340.18
  0.30786656818  0.108107183326 0.0299202983332 1589936340.2
  0.307006693929   0.123022650835 0.00951340846807 1589936340.23
   0.312481795544    0.140128056428 -0.00988686937306 1589936340.25
  0.321581172116   0.157636181192 -0.0286975011621 1589936340.28
  0.331388159205   0.174016593624 -0.0472635346614 1589936340.3
   0.33921815406    0.18819802853 -0.0658353139789 1589936340.33
  0.342942032901   0.199632303515 -0.0845792207832 1589936340.35
 0.341158236074  0.208231278424 -0.103608296247 1589936340.38
 0.333213992406  0.214217024498 -0.123014192272 1589936340.4
 0.319107791912  0.217940765887 -0.142883381488 1589936340.43
 0.299324197431  0.219725816178 -0.163288191508 1589936340.45
 0.274655344672  0.219775139584 -0.184254474557 1589936340.48
 0.246052371843  0.218160366642 -0.205718545149 1589936340.5
 0.214529291349  0.214883208291 -0.227492434753 1589936340.53
 0.181118480019   0.20997934942 -0.249255945132 1589936340.55
 0.146858503106  0.203624355786 -0.270586108909 1589936340.58
 0.112786527209  0.196203123286 -0.291021791196 1589936340.6
0.0799101420798  0.188317498883 -0.310147711325 1589936340.63
0.049144824758 0.180726367575 -0.32767306364 1589936340.65
0.0212198812457  0.174232834907 -0.343478704639 1589936340.68
-0.00342728594262    0.169548708826   -0.357614492963 1589936340.7
-0.0247371150093   0.167173272919  -0.370242904754 1589936340.73
-0.0430614290988   0.167319249566  -0.381542144544 1589936340.75
-0.0591231892016   0.169904558189  -0.391596052461 1589936340.77
-0.0739018505601   0.174608060266  -0.400304374049 1589936340.8
-0.0884672922677     0.1809676057  -0.407343283144 1589936340.83
-0.103802750972  0.188486174943 -0.412193612156 1589936340.85
-0.120661103083  0.196710961559 -0.414236723187 1589936340.87
-0.139487112653  0.205260843827 -0.412900021707 1589936340.9
-0.160415466161  0.213795885394 -0.407820102141 1589936340.93
-0.183329290376  0.221942228794 -0.398984607851 1589936340.95
-0.207945243614  0.229201143673 -0.386815828909 1589936340.97
-0.233885305234  0.234877985772 -0.372169998858 1589936341
-0.260704146344  0.238063720951 -0.356244434619 1589936341.03
-0.287861851607  0.237689219972 -0.340406198282 1589936341.05
-0.314657826444  0.232653726658 -0.325975320672 1589936341.07
-0.340163674852  0.222008422295 -0.314007241017 1589936341.1
-0.363202264628  0.205159187633 -0.305119434701 1589936341.13
-0.382412607321  0.182044083306 -0.299396164424 1589936341.15
-0.396416665729  0.153243115656 -0.296386426605 1589936341.17
-0.404071299613  0.119989928424 -0.295189250698 1589936341.2
-0.404756247629 0.0840740043794 -0.294603411174 1589936341.23
-0.398627568847 0.0476433516183 -0.293309268059 1589936341.25
-0.386762691151 0.0129370178764 -0.290049841811 1589936341.27
 -0.371140502156 -0.0180096157379  -0.283784607716 1589936341.3
 -0.354434574206 -0.0436383830606  -0.273799522718 1589936341.33
 -0.339641676718 -0.0630758249521   -0.25976693718 1589936341.35
 -0.329610139189 -0.0762412084657  -0.241756767942 1589936341.37
 -0.326561610949 -0.0838388749575  -0.220204787751 1589936341.4
 -0.331706110683 -0.0872383280546   -0.19584592316 1589936341.43
 -0.345030875995 -0.0882637082424  -0.169621635116 1589936341.45
  -0.36530329458 -0.0889280472579  -0.142571931991 1589936341.47
 -0.390278673958 -0.0911549990953  -0.115724223888 1589936341.5
 -0.417059128862 -0.0965305141653 -0.0899918788019 1589936341.53
-0.442522841581 -0.106119052661 -0.066093755942 1589936341.55
 -0.463739568462  -0.120365250619 -0.0445019822697 1589936341.58
 -0.478306135411  -0.139086234096 -0.0254199735136 1589936341.6
  -0.484565274305   -0.161545852481 -0.00878808994536 1589936341.63
 -0.481700950019  -0.186592040611 0.00568806698214 1589936341.65
-0.469724958058 -0.212832815454 0.0184915266678 1589936341.68
-0.449379987916 -0.238824966235  0.030233137094 1589936341.7
-0.421985124841 -0.263251614476 0.0415779372515 1589936341.73
-0.389245526075 -0.285069038741 0.0531611928954 1589936341.75
-0.353044200076 -0.303608115486 0.0654994018782 1589936341.78
-0.315233715776 -0.318620947044 0.0789057529593 1589936341.8
-0.277448531549 -0.330268630556 0.0934234709873 1589936341.83
-0.240960830322 -0.339051448902  0.108792419604 1589936341.85
-0.206600629359 -0.345688394407  0.124462748499 1589936341.88
-0.174752758829 -0.350959991735  0.139663564427 1589936341.9
-0.145429646192 -0.355536969678  0.153525043179 1589936341.93
-0.118402532903 -0.359824859351    0.1652406527 1589936341.95
-0.0933593764902  -0.363856895266   0.174244611835 1589936341.98
-0.0700500305844   -0.36726170378   0.180371293102 1589936342
-0.0483813637094  -0.369318100729    0.18396092144 1589936342.03
-0.028437132878 -0.369089707931  0.185881563553 1589936342.05
-0.010417500505 -0.365612195505  0.187451055224 1589936342.08
0.0054834686447 -0.358091961712  0.190261983968 1589936342.1
0.0192237490187 -0.346071723901  0.195934122445 1589936342.13
0.0310340928822  -0.32952689782  0.205836775987 1589936342.15
0.0414695478322  -0.30887407276  0.220833569796 1589936342.18
0.0513666538944 -0.284894302876  0.241101135653 1589936342.2
0.0617088648902 -0.258593498285  0.266060513639 1589936342.23
0.0734303433681 -0.231034779088  0.294438193808 1589936342.25
0.0872071637323 -0.203180564808  0.324447180298 1589936342.28
  0.10328965351 -0.175776032659  0.354053254648 1589936342.3
 0.121419427833 -0.149293267523   0.38127381901 1589936342.33
 0.140853239253 -0.123940352269   0.40445081011 1589936342.35
  0.160489220867 -0.0997250736107   0.422446719306 1589936342.38
   0.17906638684 -0.0765518596912   0.434731748404 1589936342.4
  0.195391702337 -0.0543250400225   0.441355554147 1589936342.43
  0.208544801339 -0.0330318741822   0.442822256296 1589936342.45
  0.218018936823 -0.0127843500193   0.439906183159 1589936342.48
  0.223774353359 0.00619117619243   0.433454181359 1589936342.5
 0.226200993588 0.0236138497257  0.424217267645 1589936342.53
0.226005751394 0.039240541155 0.412741981235 1589936342.55
0.224052162519 0.052962056455  0.39933423082 1589936342.58
 0.221186603708 0.0648713931828  0.384090682561 1589936342.6
 0.218085069004 0.0752786356706  0.366978814355 1589936342.63
 0.215148937672 0.0846628865037  0.347938813643 1589936342.65
 0.212467429494 0.0935721012234  0.326979076651 1589936342.68
0.209849921069 0.102499624932 0.304241756866 1589936342.7
0.206915788817 0.111774829958 0.280024331018 1589936342.73
0.203217321886 0.121501387221 0.254755279743 1589936342.75
0.198366596188 0.131562106313 0.228933892636 1589936342.78
 0.19214105698 0.141689210482 0.203053089055 1589936342.8
0.184551850242 0.151579719893 0.177527719195 1589936342.83
0.175868547301 0.161022730965 0.152647963498 1589936342.85
0.166600130267 0.170002087672 0.128569007949 1589936342.88
0.157434734586 0.178744726802 0.105336996417 1589936342.9
 0.149142401948  0.187699524187 0.0829410623108 1589936342.93
 0.142449282999  0.197449477639 0.0613749053767 1589936342.95
 0.137899454103  0.208576642102 0.0406900502598 1589936342.98
0.135729202251 0.221510274155 0.021026128443 1589936343
   0.13578326801   0.236391847807 0.00260974382843 1589936343.03
  0.137498983293   0.252985995505 -0.0142791738305 1589936343.05
  0.139971861627   0.270656124556 -0.0293676755802 1589936343.08
  0.142097899999   0.288410634134 -0.0424651309932 1589936343.1
  0.142768601653   0.305013218096 -0.0535377491381 1589936343.13
  0.141080106481   0.319140555004 -0.0627644362573 1589936343.15
   0.1365123971  0.329563689723 -0.070557408272 1589936343.18
   0.12903996119   0.335326029171 -0.0775363169523 1589936343.2
  0.119149471783   0.335891218278 -0.0844539174546 1589936343.23
  0.107758775891   0.331237979106 -0.0920830196244 1589936343.25
0.0960506116082  0.321885723417  -0.10108584049 1589936343.28
 0.085250879182  0.308843678914 -0.111894358241 1589936343.3
0.0763927234628  0.293486642328 -0.124630739725 1589936343.33
0.0701125994527  0.277371436791 -0.139089173635 1589936343.35
0.0665217961262  0.262018580998 -0.154786049745 1589936343.38
0.0651855972984  0.248691876057 -0.171068307263 1589936343.4
0.0652221394444  0.238212278734 -0.187254875508 1589936343.43
0.0655064495551  0.230839412236 -0.202777780114 1589936343.45
0.0649379739968  0.226243724895 -0.217290024734 1589936343.47
0.0627099415855  0.223576326948 -0.230716391654 1589936343.5
0.0585130302651  0.221625465924 -0.243237986151 1589936343.53
0.0526177175071  0.219032517396 -0.255217516471 1589936343.55
0.0458083511934  0.214529570442 -0.267085822976 1589936343.57
 0.039180852142  0.207156939049 -0.279217934973 1589936343.6
 0.033854294109  0.196422326859 -0.291827471248 1589936343.63
0.0306730682762  0.182372836442 -0.304901971589 1589936343.65
 0.029982917394  0.165565099998 -0.318190858041 1589936343.67
0.0315481113672   0.14693609131 -0.331245079747 1589936343.7
0.0346413388288   0.12759581426 -0.343495984029 1589936343.73
0.0382907437864  0.108580059248 -0.354353054146 1589936343.75
0.0416222274356 0.0906126932565 -0.363297566905 1589936343.77
0.0442030375861 0.0739286426967 -0.369952319872 1589936343.8
0.0462853579775 0.0581990622437  -0.37411511619 1589936343.83
0.0488703445134 0.0425805594929 -0.375753291039 1589936343.85
0.0535594065802 0.0258849538133 -0.374965517674 1589936343.87
0.0622174178667 0.0068404152908 -0.371923118923 1589936343.9
 0.0765242334776 -0.0156056678442  -0.366804852044 1589936343.93
 0.0975210443494 -0.0420028389264  -0.359737022497 1589936343.95
   0.12525959014 -0.0721925975941  -0.350746775495 1589936343.97
 0.158637359619 -0.105228930853 -0.339732880851 1589936344
  0.19545956231 -0.139447690947 -0.326456678365 1589936344.03
 0.232720507189 -0.172679548552 -0.310555987921 1589936344.05
 0.267053869973 -0.202573428734 -0.291585353686 1589936344.07
 0.295270467517 -0.226976007461 -0.269084987564 1589936344.1
 0.314886696375 -0.244301769771 -0.242676519118 1589936344.13
 0.324547156288 -0.253828676494 -0.212175987498 1589936344.15
 0.324260747887 -0.255866068641 -0.177705461697 1589936344.17
 0.315399625808 -0.251761971713   -0.1397778605 1589936344.2
  0.300451793622  -0.243743083463 -0.0993285580625 1589936344.23
  0.282564905015  -0.234608302565 -0.0576742298688 1589936344.25
  0.264962425944  -0.227321584335 -0.0163936722693 1589936344.27
  0.25034405599 -0.224568486569  0.022856079857 1589936344.3
 0.240391736301 -0.228349535002 0.0585572481781 1589936344.33
 0.235485985482 -0.239679750075 0.0895400199827 1589936344.35
 0.234695883483 -0.258446748624  0.115139195528 1589936344.37
 0.236047585431 -0.283452332341  0.135265726074 1589936344.4
 0.237013973524 -0.312629470617  0.150378643515 1589936344.43
0.235117113849 -0.34339421043   0.1613647973 1589936344.45
 0.228508281198 -0.373066625276  0.169353635002 1589936344.47
 0.216394196249 -0.399282313464  0.175507250871 1589936344.5
 0.199212502299 -0.420319933629  0.180829012639 1589936344.53
 0.178517681867 -0.435290320106  0.186026749338 1589936344.55
 0.156608011658 -0.444163510019  0.191451092431 1589936344.58
 0.135987435531 -0.447643416203  0.197110559068 1589936344.6
 0.118795383813 -0.446928260126  0.202747526892 1589936344.63
 0.106340863728 -0.443413198654  0.207947925526 1589936344.65
0.0988444100984 -0.438397558724  0.212254834296 1589936344.68
0.0954337093962 -0.432852614491  0.215261721551 1589936344.7
0.0943733371163 -0.427288842339  0.216671473519 1589936344.73
0.0934544312596 -0.421738166212  0.216318505303 1589936344.75
0.0904404758947 -0.415842290974   0.21416019028 1589936344.78
0.0834664165456 -0.409017846043  0.210249229925 1589936344.8
  0.07131555477 -0.400656048763  0.204699988388 1589936344.83
0.0535398849564  -0.39031054951  0.197659592469 1589936344.85
0.030430433941  -0.3778324136 0.189290082347 1589936344.88
0.0028736137461 -0.363424798329  0.179762878453 1589936344.9
-0.0278573056582  -0.347608814365   0.169262666536 1589936344.93
-0.0603281495418  -0.331111788494   0.157995295166 1589936344.95
-0.0931504426008  -0.314705177247   0.146193951433 1589936344.98
-0.125145477586 -0.299028740093    0.1341196787 1589936345
-0.155455157297  -0.28443916618  0.122055172243 1589936345.03
-0.183598457871 -0.270915543236  0.110293259238 1589936345.05
-0.209478197615 -0.258042274805 0.0991227069158 1589936345.08
-0.233345071228 -0.245074384328  0.088813980611 1589936345.1
-0.255725959309 -0.231073194809 0.0796065235973 1589936345.13
-0.277323417074 -0.215085356963 0.0716975100857 1589936345.15
-0.298894538642 -0.196328737052 0.0652308215321 1589936345.18
-0.321120252987 -0.174347535034 0.0602852302336 1589936345.2
-0.344479477085 -0.149106478289 0.0568624704597 1589936345.23
-0.369144892753 -0.121007577548 0.0548779981289 1589936345.25
 -0.394917070578 -0.0908289428488  0.0541586012931 1589936345.28
 -0.421210512678 -0.0595999027232  0.0544508821068 1589936345.3
-0.447099172674 -0.028437367179 0.0554426114672 1589936345.33
 -0.471421238549 0.00162640885401   0.056795231353 1589936345.35
-0.492934439522  0.029794506421 0.0581815370404 1589936345.38
-0.510503923581 0.0556084405543 0.0593197200973 1589936345.4
-0.523294870823 0.0789855158764 0.0599949302293 1589936345.43
-0.530933582653  0.100183955031 0.0600624422478 1589936345.45
-0.533598328042  0.119703216273 0.0594313725751 1589936345.48
-0.53200875102 0.138139350935 0.058033089474 1589936345.5
-0.527300583623   0.15602306841 0.0557823722603 1589936345.53
-0.520797381419  0.173670947049 0.0525409959115 1589936345.55
-0.513717381036  0.191078957802 0.0480929261008 1589936345.58
-0.506874648219  0.207882333527  0.042138700848 1589936345.6
-0.500442869815  0.223396399072 0.0343145441329 1589936345.63
-0.493843466256  0.236739765017 0.0242390661888 1589936345.65
-0.485797597098   0.24702579875 0.0115863572613 1589936345.68
  -0.474548226955    0.253592557283 -0.00382142755239 1589936345.7
-0.458219899064  0.256228450926 -0.021915719833 1589936345.73
-0.435248123395  0.255344879228 -0.042297557623 1589936345.75
 -0.404786491012   0.252051006352 -0.0641915946837 1589936345.78
 -0.366995574573   0.248099939199 -0.0864595541166 1589936345.8
-0.323136509395  0.245697800571 -0.107685367723 1589936345.82
-0.275431294977  0.247194378446 -0.126329351287 1589936345.85
-0.226703831769   0.25470128045 -0.140932146843 1589936345.88
-0.179868919263  0.269703976315   -0.1503355966 1589936345.9
-0.137376706036  0.292741622383 -0.153880928908 1589936345.92
-0.100734743047  0.323220920754 -0.151546368493 1589936345.95
-0.0702131180894   0.359409310237  -0.143996098724 1589936345.98
-0.0447943398635   0.398622303907  -0.132528016061 1589936346
-0.0223716243879   0.437584585836  -0.118925313314 1589936346.03
-0.000144209492593     0.472910713428    -0.105232972471 1589936346.05
 0.0248783985772   0.501625664288 -0.0934920535226 1589936346.08
 0.0553620839019   0.521633366905 -0.0854707603465 1589936346.1
 0.0932095779322    0.53204561862 -0.0824312567756 1589936346.13
  0.139256439807    0.53330473503 -0.0849656207025 1589936346.15
  0.193129771646   0.527068400634 -0.0929242691631 1589936346.18
 0.253271695311  0.515868892712 -0.105446891461 1589936346.2
 0.317110691208  0.502603203875 -0.121090695165 1589936346.23
0.381351222551 0.489946946902 -0.13803546087 1589936346.25
 0.442342762742  0.479805208366 -0.154332146731 1589936346.28
 0.496481487597  0.472911571328 -0.168154400181 1589936346.3
 0.540592836272  0.468660412028 -0.178012417479 1589936346.33
 0.572245253534  0.465211632894 -0.182896862879 1589936346.35
 0.589958609454  0.459851430387 -0.182335868009 1589936346.38
 0.593294103461  0.449540331776 -0.176367141647 1589936346.4
0.582838543291 0.431541891472 -0.16544496487 1589936346.43
 0.560114069433  0.404009066819 -0.150313420737 1589936346.45
 0.527446627791  0.366412236427 -0.131879620232 1589936346.47
 0.487812424052  0.319720925697 -0.111113768377 1589936346.5
  0.444659627079    0.26629604172 -0.0889892123884 1589936346.53
 0.401686071511  0.209504409474 -0.066459681101 1589936346.55
 0.362553975739  0.153123699073 -0.044458022433 1589936346.57
  0.330542765975   0.100652020786 -0.0238949806351 1589936346.6
  0.308173741389  0.0546611019945 -0.0056392720255 1589936346.63
  0.296871345592   0.016327411623 0.00953035002046 1589936346.65
  0.296740411307 -0.0147590889897  0.0209980775335 1589936346.67
  0.306527588811 -0.0404671599246  0.0283954180951 1589936346.7
  0.323798289637 -0.0637049850924  0.0316777054964 1589936346.73
  0.345307974546 -0.0878001713128  0.0311745587366 1589936346.75
 0.367495673148 -0.115812122781   0.02760266134 1589936346.77
 0.386996230075 -0.149920916966 0.0220378349564 1589936346.8
 0.401067214136 -0.191014270536 0.0158499354326 1589936346.83
 0.407856100331 -0.238544410093 0.0106063086593 1589936346.85
  0.406481080028  -0.290663454449 0.00794829207695 1589936346.87
 0.396947031767 -0.344586413947 0.0094438523739 1589936346.9
 0.379951823328 -0.397089521331  0.016421347362 1589936346.93
 0.356650172374 -0.445035390339 0.0297959109515 1589936346.95
 0.328433877036 -0.485824764621 0.0499093569472 1589936346.97
 0.296764683182 -0.517701648568 0.0764126535959 1589936347
  0.26306802386 -0.539876496382  0.108222286089 1589936347.03
 0.228671474263 -0.552472447168    0.1435752271 1589936347.05
 0.194758942288 -0.556334393617  0.180191811833 1589936347.07
 0.162314678538 -0.552763377842  0.215534535167 1589936347.1
 0.132048447485 -0.543245130242  0.247128679961 1589936347.13
0.104316429872  -0.5292308112 0.272893693488 1589936347.15
0.0790696826477 -0.512004200799  0.291427562578 1589936347.17
0.0558633781081 -0.492640710663  0.302192538177 1589936347.2
0.0339435989585  -0.47203848996  0.305568110079 1589936347.23
0.0124018594008 -0.450986628851  0.302761998226 1589936347.25
-0.00963636255923   -0.430231874098    0.295596788437 1589936347.27
-0.0328337007701  -0.410511978662   0.286213070497 1589936347.3
-0.0575137105262  -0.392537935792    0.27674430784 1589936347.33
-0.083609206014 -0.376925496886  0.269020934248 1589936347.35
-0.110691540621 -0.364094512914    0.2643515007 1589936347.37
 -0.13806797185 -0.354167801541  0.263410303588 1589936347.4
-0.164919880433 -0.346904390087  0.266238495395 1589936347.43
-0.190445873999 -0.341692593259  0.272344205384 1589936347.45
-0.213972531629 -0.337608990628  0.280871239746 1589936347.47
-0.235003489991  -0.33352736575  0.290798337735 1589936347.5
-0.253194915006 -0.328245861513  0.301131843856 1589936347.53
-0.268269050496   -0.3205970665   0.31106198504 1589936347.55
-0.279900771274 -0.309515563309  0.320064042583 1589936347.57
-0.287626394865 -0.294056724601  0.327937920912 1589936347.6
-0.290822503705  -0.27338180168  0.334790313295 1589936347.63
-0.288783141053 -0.246739370384  0.340970957545 1589936347.65
-0.280890990421 -0.213476116482  0.346978085636 1589936347.68
-0.266842435015 -0.173099297843  0.353349014876 1589936347.7
 -0.24686076319 -0.125392108176  0.360550811466 1589936347.73
-0.221826857828 -0.070558397814  0.368883707506 1589936347.75
  -0.193275729974 -0.00935378309712    0.378407272351 1589936347.78
-0.163244072517 0.0568458047238   0.38889688007 1589936347.8
-0.133995713085  0.126076334836  0.399835499247 1589936347.83
-0.107684687151  0.195932570692  0.410442448343 1589936347.85
-0.0860302921632   0.263813397968    0.41973645212 1589936347.87
-0.0700721648553   0.327222298519   0.426626065249 1589936347.9
-0.0600498843154   0.384063826146   0.430017297226 1589936347.93
-0.0554197577049   0.432877282851   0.428926499916 1589936347.95
-0.0549920458595    0.47296477331   0.422586374722 1589936347.97
-0.0571525862031   0.504396125351   0.410534175688 1589936348
-0.0601252569531   0.527899431018   0.392673128339 1589936348.03
-0.0622333913622   0.544666917397   0.369299900935 1589936348.05
-0.0621257158155    0.55611830948   0.341092669437 1589936348.07
-0.0589428934519   0.563666578942   0.309056935345 1589936348.1
-0.0524116066547   0.568524534853     0.2744307364 1589936348.13
-0.0428617824962   0.571577859852   0.238557124241 1589936348.15
-0.0311678195036   0.573334948366    0.20273857657 1589936348.17
-0.0186171873285   0.573949735565   0.168093490049 1589936348.2
-0.0067120608255   0.573302768265   0.135436954298 1589936348.23
0.00308435831353   0.571119095242   0.105205132418 1589936348.25
0.00963209435175   0.567099066046  0.0774349451586 1589936348.28
0.0123852789067  0.561038774707 0.0518004941419 1589936348.3
0.0115882571568  0.552919705295 0.0276977950592 1589936348.33
0.00833194436273   0.542952216352 0.00436235747175 1589936348.35
0.00442499019667   0.531565375844 -0.0189991215882 1589936348.37
0.00207664336249   0.519345829948 -0.0430817237228 1589936348.4
0.00344209854777   0.506938834519  -0.068376804587 1589936348.43
 0.0101285444158   0.494932634367 -0.0951020460431 1589936348.45
 0.022783508798  0.483750893585 -0.123177315569 1589936348.47
0.0408761321632  0.473575946533 -0.152251061829 1589936348.5
 0.062737848813  0.464318895194 -0.181774144354 1589936348.53
0.0858639659871  0.455642980222  -0.21110862869 1589936348.55
 0.107410876038  0.447036518387 -0.239650520572 1589936348.57
 0.124774282002  0.437922719725 -0.266940739862 1589936348.6
 0.136115097351   0.42778678019 -0.292740229733 1589936348.63
 0.140715368584  0.416296423255 -0.317053377221 1589936348.65
 0.139090577437  0.403391222258 -0.340096852742 1589936348.67
0.132843652019 0.389319184434 -0.36222468387 1589936348.7
 0.124303954834  0.374606501498 -0.383830662082 1589936348.73
 0.116037631812  0.359957727671 -0.405253160477 1589936348.75
 0.110335730278  0.346097561244 -0.426704443927 1589936348.77
 0.108781833636  0.333579388057 -0.448237998015 1589936348.8
 0.111976078777  0.322596720564 -0.469756120547 1589936348.82
 0.119455837052   0.31283868085 -0.491049426795 1589936348.85
 0.129814658952  0.303427375512 -0.511853016088 1589936348.87
 0.140988070869  0.292962388408 -0.531902401702 1589936348.9
 0.150651724314   0.27967719055 -0.550975615756 1589936348.92
 0.156665025852  0.261688468284 -0.568914338372 1589936348.94
 0.157490290256  0.237298188288 -0.585623816041 1589936348.97
 0.152521685411  0.205294992735 -0.601056110425 1589936349
 0.142268677014  0.165199388644 -0.615182409062 1589936349.02
 0.128355597881  0.117406398574 -0.627958346152 1589936349.04
 0.113323171515 0.0631971917394 -0.639283800396 1589936349.07
  0.100248909035 0.00461328146233  -0.648957887121 1589936349.1
 0.0922379072454 -0.0557909774022  -0.656632198526 1589936349.12
0.0918668497412 -0.115282415907 -0.661770605669 1589936349.15
 0.100683178407  -0.17131988297 -0.663630078497 1589936349.17
 0.118861018854 -0.221904788339 -0.661280114408 1589936349.2
 0.145092501508 -0.265855573963 -0.653674520384 1589936349.22
 0.176750364467 -0.302960103103 -0.639777364708 1589936349.25
 0.210303226387  -0.33397675255 -0.618727955218 1589936349.27
 0.241910623204 -0.360477143495 -0.590013357446 1589936349.3
 0.268084070288 -0.384548884563 -0.553607078383 1589936349.32
  0.28628384456 -0.408402225531   -0.5100336533 1589936349.35
 0.295333604446 -0.433945768251 -0.460332880138 1589936349.37
 0.295573524333 -0.462408360168 -0.405921941953 1589936349.4
 0.288728029846 -0.494082174041 -0.348381776547 1589936349.43
 0.277523520663 -0.528242852717 -0.289216983955 1589936349.45
  0.26514122623 -0.563268046323 -0.229648938817 1589936349.47
 0.254619698477 -0.596932844359 -0.170495685092 1589936349.5
 0.248324523689 -0.626820379463  -0.11216996128 1589936349.53
  0.247580070515  -0.650759297261 -0.0547934112257 1589936349.55
  0.252516357551  -0.667194703388 0.00160989348474 1589936349.57
 0.262135323566 -0.675417548771 0.0569028114299 1589936349.6
 0.274558374737 -0.675613712076  0.110676307146 1589936349.63
 0.287391093123 -0.668736970307  0.162196449214 1589936349.65
 0.298134044932 -0.656247447884  0.210478727353 1589936349.67
 0.304575904564 -0.639781035445  0.254471202719 1589936349.7
 0.305118553568 -0.620823369512  0.293293385093 1589936349.73
0.298997531772 -0.60045560527 0.326459729945 1589936349.75
 0.286374123793 -0.579220951323  0.354020953728 1589936349.77
  0.26828965463 -0.557133793469  0.376581021266 1589936349.8
 0.246490111542 -0.533821343021  0.395184029585 1589936349.83
 0.223148939561 -0.508756993663  0.411101551995 1589936349.85
 0.200533654279 -0.481522182456  0.425576630319 1589936349.87
 0.180672576545 -0.452026092736  0.439588815523 1589936349.9
 0.165078008624 -0.420623099753  0.453694197878 1589936349.93
 0.154571523005 -0.388094244509  0.467969728666 1589936349.95
 0.149238625713 -0.355494272672  0.482061162441 1589936349.97
 0.148517469073 -0.323900609055  0.495308389108 1589936350
 0.151402481706 -0.294126287571  0.506907631365 1589936350.03
 0.156721863488 -0.266469301114  0.516069111272 1589936350.05
 0.163432009533 -0.240564013338  0.522139178571 1589936350.07
   0.1708663363 -0.215378140844  0.524672310523 1589936350.1
 0.178883259661 -0.189366481147   0.52345436117 1589936350.13
0.187878192312  -0.1607570836 0.518488858324 1589936350.15
 0.198654359961 -0.127914702296  0.509961343947 1589936350.17
  0.212180506342 -0.0897071968074   0.498194249846 1589936350.2
  0.229291239581 -0.0457977889624   0.483599558704 1589936350.23
  0.250399956262 0.00319926113994   0.466631597461 1589936350.25
 0.275291612962 0.0557332258409  0.447740108013 1589936350.27
0.303044860332  0.10949949472 0.427324724123 1589936350.3
0.332105110199 0.161753763518 0.405694344622 1589936350.33
0.360498110411 0.209696973925 0.383036235514 1589936350.35
0.386143953312 0.250860148007 0.359399223335 1589936350.37
0.407209828104 0.283423178035 0.334693860664 1589936350.4
0.422430204855 0.306418598145 0.308710767885 1589936350.43
0.431327354883 0.319795688595 0.281156738647 1589936350.45
0.434282869906 0.324346544215 0.251706840752 1589936350.47
0.432439430096 0.321518727082 0.220069601482 1589936350.5
0.427446355498 0.313154928696  0.18606060073 1589936350.53
0.421095728762 0.301207202238 0.149676625726 1589936350.55
 0.41492096127 0.287472471372 0.111158741659 1589936350.57
 0.40984029533 0.273388617382 0.071030336321 1589936350.6
 0.405920404351  0.259917742958 0.0300971514561 1589936350.63
  0.402311285685   0.247526797899 -0.0105990861236 1589936350.65
  0.397368787384   0.236258363296 -0.0498741080025 1589936350.67
  0.388942661657   0.225869302973 -0.0865325971354 1589936350.7
 0.374772832584  0.216004530092 -0.119518966224 1589936350.73
0.352911570915 0.206368307173 -0.14806144554 1589936350.75
 0.322081567028  0.196856900574 -0.171781149001 1589936350.77
 0.281893631129  0.187624477881 -0.190741683792 1589936350.8
 0.232881022296  0.179068069271 -0.205425113417 1589936350.83
 0.176352495446  0.171734681077 -0.216635060243 1589936350.85
 0.114111708729  0.166170945004 -0.225344007979 1589936350.87
0.0481236083719  0.162749708674 -0.232515043934 1589936350.9
-0.0197825945204   0.161515284841  -0.238934522712 1589936350.93
-0.0881032712085   0.162086820269  -0.245089469913 1589936350.95
-0.155712623665  0.163647292982 -0.251112632987 1589936350.97
-0.221793225493  0.165027486632 -0.256802144263 1589936351
-0.285697165764  0.164874886499 -0.261706344724 1589936351.03
-0.346805325926  0.161880485614  -0.26525141623 1589936351.05
-0.404442794358  0.155024019505 -0.266882334395 1589936351.07
-0.457879396748  0.143791768619 -0.266186989977 1589936351.1
-0.506408028965  0.128322295891 -0.262978872894 1589936351.13
-0.549463847274  0.109444958919 -0.257324238489 1589936351.15
-0.586734034014 0.0885929694679 -0.249512843129 1589936351.17
 -0.61821329544 0.0675950349634 -0.239984199397 1589936351.2
 -0.64418055974 0.0483737924886 -0.229231105353 1589936351.23
-0.665099692795 0.0326007769388 -0.217706807737 1589936351.25
-0.681472458649  0.021371624366 -0.205760267614 1589936351.27
-0.693687967528 0.0149676217517 -0.193615643607 1589936351.3
-0.701915384916 0.0127587158313 -0.181399068297 1589936351.33
 -0.70607546765 0.0132795067249 -0.169201316743 1589936351.35
-0.705904668178 0.0144770950317 -0.157152988447 1589936351.37
-0.701098836979 0.0140938319552 -0.145483093206 1589936351.4
-0.691499263751 0.0101165935254 -0.134534931759 1589936351.43
 -0.677269209913 0.00120478343911  -0.124724858067 1589936351.45
 -0.659009257897 -0.0129926536463  -0.116446844191 1589936351.47
 -0.637775403544 -0.0317036929548  -0.109943716242 1589936351.5
 -0.614990192401 -0.0531216917788  -0.105179397277 1589936351.53
-0.592265738888 -0.074709628745 -0.101751667181 1589936351.55
 -0.571178950206 -0.0936671470123 -0.0988798013849 1589936351.57
  -0.55304752243  -0.107469264573 -0.0954861124956 1589936351.6
 -0.538749345529  -0.114366017518 -0.0903676471074 1589936351.63
 -0.528612030657  -0.113737475225 -0.0824293604827 1589936351.65
 -0.522380286574  -0.106228534739 -0.0709297108493 1589936351.67
 -0.519253091187 -0.0936358976693 -0.0556801657805 1589936351.7
 -0.517973314973 -0.0785736065709 -0.0371457353264 1589936351.73
 -0.516949955579 -0.0639897956811 -0.0164145196272 1589936351.75
 -0.514396070018 -0.0526351959045 0.00496427424913 1589936351.77
 -0.508471652209 -0.0465886491929  0.0252409914181 1589936351.8
  -0.49742720549 -0.0469274896465  0.0427666340975 1589936351.83
 -0.479747479344 -0.0535964074252  0.0562665739774 1589936351.85
 -0.454293626029 -0.0654855430776  0.0650279991579 1589936351.87
 -0.420435823414 -0.0806869104596  0.0689667317306 1589936351.9
 -0.378159554902 -0.0968668726666  0.0685713259121 1589936351.92
-0.328121469292 -0.111676975504 0.0647525539897 1589936351.95
-0.271629812013 -0.123127252687 0.0586459839344 1589936351.97
-0.210532999215 -0.129862559089 0.0514198198599 1589936352
 -0.14701768651 -0.131308131324 0.0441298573818 1589936352.02
-0.0833404195605   -0.12767862103  0.0376427071979 1589936352.05
-0.0215378323585  -0.119869214902  0.0326242990174 1589936352.07
0.0368276963424 -0.109264367746 0.0295707485648 1589936352.1
 0.0908320914762 -0.0975076085051  0.0288490517381 1589936352.12
  0.140225843535 -0.0862747061391  0.0307180790126 1589936352.15
  0.185334013102 -0.0770833083669  0.0353137556996 1589936352.17
  0.226844396573 -0.0711576848803   0.042600694323 1589936352.2
  0.265535640109 -0.0693513196083  0.0523095680483 1589936352.22
  0.302011368641 -0.0721167839824  0.0638898738703 1589936352.25
 0.336504110253 -0.079504757892 0.0765083180378 1589936352.27
   0.36879494775 -0.0911741015066  0.0891135187802 1589936352.3
 0.398266125925 -0.106402334514    0.1005703554 1589936352.32
 0.424071432609 -0.124097930372  0.109846327445 1589936352.35
0.445380869522 -0.14282761028 0.116213154562 1589936352.37
 0.461638383367 -0.160878226154  0.119415374112 1589936352.4
 0.472767918245 -0.176370540146  0.119758567618 1589936352.43
 0.479274361677 -0.187431044074  0.118084539404 1589936352.45
0.482209790343 -0.19241114883 0.115626343531 1589936352.47
  0.48300694195 -0.190126199681  0.113765887432 1589936352.5
 0.483214417238 -0.180075424392  0.113742800737 1589936352.53
